ply
format ascii 1.0
element vertex 865
property double x
property double y
property double z
end_header
-0.978493311347156 0.806723007950095 5.053693491004804
-0.917117767344852 -0.249127451065254 4.756837916237558
-0.918147059245719 -0.228298048635778 4.762057176735105
-0.961523640506533 0.790230577126218 5.012694064257870
-0.924783385701222 0.044138590750896 4.848639538934910
-0.902101499040236 -0.182383226454552 4.746847705310071
-0.900665476252211 -0.415053992141023 4.781597204636467
-0.900665476252211 -0.415053992141023 4.781597204636467
-0.915554946998650 0.063737084193140 4.861403975272469
-0.889686964617047 -0.029041513218948 4.756674047041756
-0.889706867586206 -0.386888078826295 4.781758726904306
-0.889007333533723 -0.433416532538049 4.788551001502342
-0.858222187944023 -0.248146498354242 4.642967743112540
-0.884943815856309 -0.599163007096578 4.809797912637513
-0.872181876491619 -0.413476151397816 4.769832939225267
-0.872181876491619 -0.413476151397816 4.769832939225267
-0.944649937667028 0.701378147468544 5.229730141882101
-0.845871726393712 -0.141880388416795 4.712826670888566
-0.874470197072750 0.148565083281025 4.907917479725088
-0.858311580496626 -0.547157044669135 4.832138532633393
-0.818687667289214 -0.274046326221158 4.612469744394069
-0.818687667289214 -0.274046326221158 4.612469744394069
-0.808673774637922 -0.351117392071014 4.591129470049187
-0.797252090130469 -0.198030730140015 4.674719272755084
-0.861285460659135 0.613854590367690 5.142360647280857
-0.782029032821959 -0.197431675294215 4.686125485907036
-0.768730328083935 -0.250964190880227 4.619025685632633
-0.764613584877921 -0.259631833868514 4.614769235001878
-0.764613584877921 -0.259631833868514 4.614769235001878
-0.736711535925988 -0.265026069678525 4.591376109144032
-0.784381584899843 -0.581934862406722 4.919419056831915
-0.730302113763578 -0.273029895592376 4.595581324620651
-0.810088696075622 0.471642320685583 5.094635945017360
-0.822407480973661 0.722773587676370 5.195483103123526
-0.725134148157864 -0.250074235355296 4.608869896690706
-0.716769269413000 -0.267943862057331 4.596198454113676
-0.795368581199175 0.481077594565302 5.097454704363898
-0.710290763122999 -0.258125223005568 4.608736837201815
-0.783168970790384 0.504862118688908 5.094211915101960
-0.741884173949475 0.098361478038360 4.841722310536356
-0.798047076686328 0.711717604831800 5.244273275204637
-0.769349770332149 0.473215004831979 5.070744121780757
-0.769349770332149 0.473215004831979 5.070744121780757
-0.736385982457246 0.154625388854161 4.877665593434543
-0.748828818905912 0.433030824367615 5.040680966108028
-0.688246501122901 -0.239403195841561 4.646007553993639
-0.750853260431567 0.758217916415471 5.112074158353566
-0.719852806189128 0.215267607264057 4.911634735692320
-0.759824461490095 0.666639098041487 5.186844207245187
-0.673982147268797 -0.249192783744553 4.618425234570295
-0.753536854609019 0.628719254507024 5.164669602036302
-0.639938886759590 -0.453296216107591 4.396632049963189
-0.721496520847066 0.386912537590484 4.985931403929289
-0.679390931301655 0.163143847416880 4.873315552138347
-0.633773823477047 -0.125311947448950 4.669536318028555
-0.638729046457616 -0.409380994408646 4.730146585220912
-0.626840047430565 -0.132559530484134 4.658123042093106
-0.633871625853529 -0.419268003859645 4.733509274836273
-0.627192035309230 -0.106621774543811 4.686331389926155
-0.628437023453011 -0.389412873708804 4.718159586618464
-0.625973685163502 -0.436601907463898 4.721280445269136
-0.626711599750366 -0.398755222561409 4.724278326187915
-0.612725086016419 -0.426157392668276 4.726995233005083
-0.612883713585903 -0.369770122862142 4.719783160463291
-0.612883713585903 -0.369770122862142 4.719783160463291
-0.656034380594880 0.527251114613060 5.058476040450310
-0.668335110881982 0.714665986710893 5.168783946958987
-0.668335110881982 0.714665986710893 5.168783946958987
-0.607368644132770 0.091246588008945 4.769272044696762
-0.653100343944484 0.628127820583218 5.125014033359133
-0.653100343944484 0.628127820583218 5.125014033359133
-0.648303865027745 0.602494656950156 5.099547578228808
-0.580845946850667 -0.388385701021051 4.719400412393878
-0.600867255048038 0.371549930505169 4.946930193827496
-0.627218268810385 0.735126282911621 5.162461962398748
-0.564299488043309 -0.178584778151991 4.672263922882499
-0.564299488043309 -0.178584778151991 4.672263922882499
-0.594672671954744 0.381313356453749 4.948365411618885
-0.569966581268332 0.108087513769280 4.804812379852211
-0.553004214670552 -0.415807026282275 4.722802564796384
-0.542238040575330 -0.178662928368967 4.683186535829575
-0.544902827541027 -0.432187850940635 4.715633100689320
-0.579468232766702 0.545556837271224 5.040686799176989
-0.529943383455331 -0.242958709586532 4.673814798447726
-0.541308033289777 0.075584903373781 4.803164862947899
-0.512893799620896 -0.372516054385412 4.570833076027404
-0.524935403217338 -0.186075343875451 4.675119979962389
-0.523093706455427 -0.252732401836079 4.688410720635830
-0.517916760294825 -0.439693446836419 4.709082609600893
-0.517916760294825 -0.439693446836419 4.709082609600893
-0.566441313537300 0.740734241108899 5.150150128262867
-0.516775349269178 -0.405362173774654 4.711604069691555
-0.515245366383625 -0.431521330648621 4.713664568921391
-0.504324605571301 -0.240677736112323 4.682250684480611
-0.554395378893580 0.720258867557852 5.147940451938146
-0.513323818193269 0.076707292784940 4.784337428567543
-0.496316968913104 -0.343931608511910 4.684794709416037
-0.486820783810851 -0.351489070912448 4.679204360877781
-0.486820783810851 -0.351489070912448 4.679204360877781
-0.505160450780419 0.192792911474012 4.849637442433642
-0.502708593815174 0.488794899781006 5.028775750762563
-0.499620230758541 0.522299464023700 5.048210983197712
-0.501037777931177 0.533792597990487 5.056265210802560
-0.459278044303268 -0.199743122572667 4.666733876805042
-0.459278044303268 -0.199743122572667 4.666733876805042
-0.459142040279289 -0.349998305636674 4.683501128242647
-0.454041736045185 -0.208160675541349 4.655089043292321
-0.454041736045185 -0.208160675541349 4.655089043292321
-0.451193925458793 -0.143373620011636 4.645395365362521
-0.453577326842297 -0.275505004373182 4.677059602270820
-0.453577326842297 -0.275505004373182 4.677059602270820
-0.451884010047136 -0.239779364607817 4.672012473918809
-0.466541627730484 0.381450269012049 4.914025233897686
-0.427796427864130 -0.122782591779480 4.644394763961902
-0.425030374824257 -0.142892799417451 4.647664484422540
-0.442481612284768 0.519030381236385 4.999662806828074
-0.439037302661662 0.555505968502876 5.021840840544366
-0.396855078112458 -0.101866030732010 4.632693543873363
-0.396779230575975 -0.469069086778776 4.838361138153384
-0.377941830326392 -0.441575564288183 4.709484073052904
-0.374963446789150 0.539355193108445 4.986076691725724
-0.336770275880600 -0.464007326978717 4.518582005497958
-0.334799482361506 -0.217677073635944 4.556222067607632
-0.343107532639861 -0.295547719393777 4.691545703367938
-0.343107532639861 -0.295547719393777 4.691545703367938
-0.364551106257899 0.795660735768619 5.053951871247251
-0.352835525120514 0.534550304197121 4.999532457317307
-0.327452068292900 -0.396340226983532 4.716345207344312
-0.313941081670092 -0.103211344683288 4.631454482547056
-0.315820212140137 0.073173356908081 4.745918288956301
-0.301565122090302 -0.540509134127718 4.787844842033079
-0.293909200264803 -0.050056160099368 4.755970704490704
-0.291982874796782 0.369377489701751 4.922748501537090
-0.290301764024937 0.572311261452864 5.038098477195248
-0.265568551486589 -0.549751460261284 4.793264433822827
-0.261311745337870 -0.513323196973483 4.752520302288888
-0.254497514375711 -0.199129731024285 4.719822020573748
-0.273123453431899 0.744958164649260 5.119734388439449
-0.388144173815926 0.790602656389279 7.338789900841943
-0.252647609372518 0.201620138873568 4.883936391759291
-0.231193210231020 -0.229866652723115 4.633322254483555
-0.232127160083648 -0.445308246883572 4.741311151503385
-0.228000731027739 -0.425426748340861 4.740246255846237
-0.228000731027739 -0.425426748340861 4.740246255846237
-0.215855451864417 -0.169446538884324 4.629011901433512
-0.240384125124739 0.741274817538720 5.145835786260133
-0.219416367438198 -0.537286760459460 4.787910173022502
-0.220281243290771 0.056259495840052 4.809092738656550
-0.217479953549469 0.086658136303697 4.828661714298245
-0.210569110659414 -0.532111646560822 4.782297382801062
-0.210318633361910 0.094350058271609 4.828110542045016
-0.210318633361910 0.094350058271609 4.828110542045016
-0.197925142863934 0.218982691667680 4.902941631680080
-0.185983334982480 0.047671375272025 4.774226440134796
-0.157480424697511 0.353548282976644 4.956453307624397
-0.146777140653990 -0.529420684001544 4.832280094636383
-0.132412240069707 0.697920290500283 5.156454637658916
-0.111737978233524 -0.360433633681543 4.790461925660283
-0.111737978233524 -0.360433633681543 4.790461925660283
-0.109202740667098 0.714901808016366 5.166680451726340
-0.073637468891003 -0.486848050551651 4.850675289767420
-0.063216058009244 -0.506860102677922 4.872843898701920
-0.057553954000292 -0.227360738104747 4.779313208259556
-0.057553954000292 -0.227360738104747 4.779313208259556
-0.059121438948515 -0.025346178647678 4.807586731664863
-0.061393784403929 0.705595796371580 5.178766049354325
-0.052808251689280 -0.663088057561101 4.944812369035707
-0.052695300573709 -0.012365211406454 4.824983920956381
-0.052695300573709 -0.012365211406454 4.824983920956381
-0.047299236391687 0.700536397204929 5.168441706207328
-0.019462741999636 -0.382290455250275 4.721380105909885
-0.012678451404180 -0.928718323617529 5.169262142220999
-0.012678451404180 -0.928718323617529 5.169262142220999
-0.011322589036608 -0.910133535082721 5.173297652233320
-0.011322589036608 -0.910133535082721 5.173297652233320
-0.008981204444487 -0.972573373887712 5.167847319830028
-0.005291646607959 -0.900988051631700 5.172432288971792
0.004684785050972 -0.665926449455198 4.977364926978848
0.011500820501133 -0.219746771406957 4.822205594298869
0.014622404207323 -0.961393959333633 5.148454839524548
0.014622404207323 -0.961393959333633 5.148454839524548
0.016116862614066 -0.917029961184338 5.147385741898178
0.020238207565855 0.312453959723107 5.065408366134006
0.029979485924845 0.420449365979242 5.125282712513044
0.034731506400272 0.377720510138042 5.099037017971018
0.039235666956391 -0.635606234556777 4.984358512591144
0.039235666956391 -0.635606234556777 4.984358512591144
0.071657026389112 -0.787758029700151 5.153676049156517
0.081696248016877 -0.733828150252633 5.061693702505634
0.085143557115075 -0.788952501530971 5.112688876771359
0.090047455169912 -0.725024705894505 5.053617488875103
0.103487869037196 -0.765762427714262 5.015162365935668
0.147938619012050 -0.896560251631692 5.338576284125291
0.147852364135620 -0.479987286950738 4.846543668768631
0.170220768116582 0.573288707904537 5.359893013935375
0.217996842131614 0.540882187310501 5.368960171646308
0.214204736140835 -0.340096702548669 4.985863761373257
0.226617851876583 -0.791677278668422 5.165733231765071
0.239960928804758 -0.848439273798917 5.267424284892530
0.243112337782585 0.266325779479160 5.303683704024952
0.243112337782585 0.266325779479160 5.303683704024952
0.247519689080995 0.456763280031095 5.402238386677889
0.257674094101359 -0.848244076352368 5.261920848343700
0.275114135873863 0.204811884181330 5.274922295618911
0.268793915091151 -0.435625299544124 5.067052746178221
0.285891923107347 0.151354370592211 5.283336429789164
0.305380173046781 0.507707265999425 5.449035374217548
0.297108849141461 -0.386987956341414 5.061113766424702
0.321513924259530 -0.696630201322352 5.190497626929988
0.435687722691412 -0.943234300790226 5.342945767963713
0.446369041341633 -0.121357313170111 5.316718622008630
0.453851628060999 -1.021810763784825 5.368567633803980
0.495076699464815 0.390153616967074 5.619983653877509
0.496688836456126 0.377842854189839 5.609949809852232
0.467480050278078 -0.324491533942401 5.239710577730682
0.508384381530698 0.398675958376321 5.629134987832969
0.537702644603474 -0.982886790200919 5.429002938658634
0.540364538878584 -0.016247107891031 5.476200010853661
0.539822890203343 -0.802406754992110 5.327830819692128
0.590865779564340 0.201152491508173 5.677229814960369
0.559144206978639 -0.598905365267591 5.306880149756253
0.618741184335649 0.290717886835690 5.721478975783057
0.572041232476067 -0.724755349683908 5.250429655596049
0.631568060352361 0.300344684650888 5.726026625811995
0.619766478369532 0.057840444991701 5.596818321565383
0.624344789780868 -0.383255288951733 5.396891780870481
0.619780513674494 -0.727777280037032 5.319277124927722
0.731147675046770 -0.440635533029993 5.490607770204174
0.768724814632122 -0.160944271279023 5.669553974959173
0.768724814632122 -0.160944271279023 5.669553974959173
0.793182559574944 0.204626767431004 5.853750338928064
0.796633356911837 -0.258314299368903 5.649952242422107
0.776370749552269 -0.685164813002277 5.428686490197421
0.946153288747338 0.249079232346999 5.797146481175815
-0.977253524963184 -0.094741569489868 4.749262089179342
-0.965370418911661 -0.120153389583626 4.749072151045486
-0.934208853170754 -0.174614518924114 4.754731337258027
-0.933017661413241 -0.268062987483594 4.768996543889304
-0.926697991831849 -0.323804565546267 4.776651608909297
-0.923401723944363 -0.360116101059435 4.777290169768278
-0.923401723944363 -0.360116101059435 4.777290169768278
-0.914291508530574 -0.192332795654504 4.744548197691676
-0.914291508530574 -0.192332795654504 4.744548197691676
-0.921002926083529 -0.464084858345414 4.792742678666765
-0.912423616725293 -0.155013453580664 4.754015772918866
-0.912423616725293 -0.155013453580664 4.754015772918866
-0.917658656816275 -0.453552495654913 4.790191432613035
-0.908881383928824 -0.116428959102296 4.742552215780458
-0.914280506373602 0.047959997062334 4.862530519929312
-0.915550076876615 0.064111535167456 4.860997583481819
-0.869181548982584 -0.265967911122174 4.626697800840091
-0.890918498544203 -0.190474527873386 4.749734964814977
-0.887050501425705 -0.153756576184421 4.730950313538042
-0.895877584686330 -0.453029237041084 4.792999249672861
-0.944064442334262 0.788806142892317 5.083211812059559
-0.884373675947446 -0.395116380864169 4.770413427721020
-0.884373675947446 -0.395116380864169 4.770413427721020
-0.867899732056797 -0.450332662783014 4.776092745062457
-0.867899732056797 -0.450332662783014 4.776092745062457
-0.853511705582832 -0.113540983136561 4.721471883661477
-0.892697741253330 0.192237224630823 4.946841014427326
-0.871846637377947 0.052312181698977 4.854935399783066
-0.879559309757587 0.120013401987103 4.893970388004100
-0.879559309757587 0.120013401987103 4.893970388004100
-0.856138086763388 -0.599371433546068 4.810455817267896
-0.873678986060794 0.214696481316793 4.913904650366249
-0.873536039476710 0.167357112895443 4.919432800041151
-0.901300101993438 0.807139204750447 5.076572643353457
-0.916748570301780 0.739239089736436 5.173553759374724
-0.858375487418657 0.786377965092661 5.020865468700714
-0.803096426298825 -0.466946223572412 4.771545970178520
-0.813989279288038 0.101442054823017 4.829256797061988
-0.843908516317375 0.779073842214477 5.089253305877802
-0.802923598590465 0.210572095988489 4.893864157580935
-0.747579916426501 -0.274964372052467 4.609980674886701
-0.760429396863110 -0.146388456435351 4.700404759360032
-0.819289702093390 0.510066047981853 5.118420462058150
-0.759298900165063 -0.444698458215218 4.754190492361004
-0.759298900165063 -0.444698458215218 4.754190492361004
-0.817499234472303 0.533844905765464 5.131959419386313
-0.725095611648035 -0.290410858857318 4.563597518946491
-0.744890093395835 -0.146958048614034 4.696341125598559
-0.739009935359022 -0.203510256867988 4.677265611386495
-0.818763234702126 0.732935827538069 5.175971795827368
-0.750556321184598 -0.462916367888303 4.754458526653685
-0.813700177476753 0.560142330390024 5.151316249078498
-0.795335020862553 0.510786753965783 5.110029831627146
-0.792804369848705 0.534954417813620 5.118354619806904
-0.790192420894745 0.562125533405443 5.138928475683596
-0.789483440826150 0.578118680573776 5.146505091863421
-0.744433520182871 -0.474851579095950 4.873867704556758
-0.724091994377376 -0.016381808605572 4.739872937996227
-0.772510399675596 0.431949813199240 5.056494564213769
-0.707615561371248 -0.200228812641300 4.650020545030362
-0.735520142448817 0.071190098432790 4.836659535850232
-0.785018031452958 0.658185927376305 5.199614802956139
-0.703243152650283 -0.157418733923112 4.680650512906936
-0.775893153577838 0.646013565696601 5.180554166181779
-0.697620033251614 -0.141879441712261 4.686105973234585
-0.748636416655680 0.433378889856347 5.044638886402921
-0.741659650239966 0.481285157129796 5.082113461782243
-0.699569618742759 0.206448511032482 4.892081706135486
-0.730767253416354 0.540600166497142 5.114712944463525
-0.726985774975423 0.566347206048623 5.132099282915846
-0.717430956902708 0.530229579992676 5.107565633465845
-0.717430956902708 0.530229579992676 5.107565633465845
-0.710957892173003 0.500412336224001 5.081419067880327
-0.710355011951130 0.775154426759851 5.113406251393725
-0.703531037456853 0.568299856493314 5.123737588829541
-0.702012731382559 0.663945197236234 5.171328379862620
-0.617054915930307 -0.358609908904269 4.713550208539643
-0.672222262309601 0.724869616122644 5.166020376044210
-0.606659661408447 -0.378784846493804 4.726903853125885
-0.606659661408447 -0.378784846493804 4.726903853125885
-0.644971070556156 0.814378350415760 5.045776098754642
-0.658324250748005 0.732794195774235 5.172526184357523
-0.591837539529964 -0.096119787852672 4.673793577121032
-0.593034890852423 -0.358335426976546 4.704633124734062
-0.593034890852423 -0.358335426976546 4.704633124734062
-0.591706397998114 -0.124818843066464 4.681309290039066
-0.646101156114787 0.743620141331496 5.137729912231463
-0.618847294370388 0.802785065048672 4.948824385462633
-0.612613948911483 0.815329070454875 5.030527671184108
-0.564380894361264 -0.367604007863059 4.704080324018091
-0.564380894361264 -0.367604007863059 4.704080324018091
-0.616958795323762 0.749369605094449 5.146274538266582
-0.559129601623173 -0.318977623773450 4.702993979062542
-0.552866686993625 -0.111838834765012 4.665832965268955
-0.548211571851107 -0.168993091651061 4.669166293125516
-0.548211571851107 -0.168993091651061 4.669166293125516
-0.532797293574229 -0.281235162670753 4.681466957727463
-0.532653656755855 -0.225152145507684 4.676375178991598
-0.532653656755855 -0.225152145507684 4.676375178991598
-0.578922308113701 0.789327026966897 5.104131539765100
-0.528301322220812 -0.205860390990037 4.678527603099496
-0.563681053599792 0.534953121146065 5.051481312859124
-0.518366110492176 -0.147495654777413 4.677143926745345
-0.516839354962768 -0.203359723823955 4.669272863764503
-0.518009372532309 -0.336594620953803 4.703520770327186
-0.509903460588658 -0.129149024679214 4.678528096312764
-0.508720156536930 -0.223319702143275 4.675975213209730
-0.508720156536930 -0.223319702143275 4.675975213209730
-0.527686064070666 0.202550821858042 4.851461366801135
-0.548152415732617 0.528708312035497 5.060105600516341
-0.549964081827659 0.787028432541535 5.067316031152875
-0.547401589042208 0.741105662592542 5.140281286391657
-0.493362756838189 -0.145789636037634 4.652446411734560
-0.522289137359042 0.411046844050126 4.981428648596166
-0.522289137359042 0.411046844050126 4.981428648596166
-0.485025649304370 -0.222069601811672 4.665141337986894
-0.485025649304370 -0.222069601811672 4.665141337986894
-0.486774984845505 -0.200878041274144 4.671839444104588
-0.486774984845505 -0.200878041274144 4.671839444104588
-0.535611430342597 0.692813933780556 5.153388831696191
-0.478728782768782 -0.087765356637065 4.648331660266392
-0.478728782768782 -0.087765356637065 4.648331660266392
-0.478541464748806 -0.313613031324986 4.678559608391247
-0.475541128794904 -0.059833817920203 4.650267516340396
-0.469229611655403 -0.144566326201953 4.648820788602157
-0.469229611655403 -0.144566326201953 4.648820788602157
-0.470279635726501 -0.369521528451282 4.684443795755533
-0.470279635726501 -0.369521528451282 4.684443795755533
-0.457373267673909 -0.162119273683773 4.660354505583767
-0.478765888724132 0.711374793882924 5.106981622503509
-0.478765888724132 0.711374793882924 5.106981622503509
-0.480671726543129 0.757185679332197 5.114668061335442
-0.432737277989774 -0.449491962832524 4.712131817399777
-0.419490033729759 -0.032832005760924 4.632238455412838
-0.419222776823341 -0.412558923694548 4.699492199719110
-0.419222776823341 -0.412558923694548 4.699492199719110
-0.439476794695211 0.569512799379543 5.028728678150293
-0.407205223410021 -0.434551691926212 4.702515480383651
-0.404474489901061 -0.282833071642037 4.687076284963744
-0.404474489901061 -0.282833071642037 4.687076284963744
-0.393052834181402 -0.148272571653421 4.595675028441629
-0.393149951211878 -0.439157736660640 4.705565224990227
-0.392614860844146 -0.228413333463005 4.682227121283475
-0.379372525171307 -0.288505170500130 4.689385736454086
-0.372489913465257 -0.270147239215719 4.682439100128105
-0.372489913465257 -0.270147239215719 4.682439100128105
-0.371303188542383 -0.366015249545355 4.702338888582426
-0.360252512581075 -0.211807799198805 4.570788260409840
-0.356914135769337 -0.193407602969014 4.591896318232508
-0.366506654018171 -0.034493115229949 4.710163971946249
-0.351172575404682 -0.276377872954639 4.702529451674619
-0.351172575404682 -0.276377872954639 4.702529451674619
-0.351229395308071 -0.371178728826195 4.718132644621913
-0.369048662840378 0.640782977154129 5.047383839441560
-0.326172723034192 0.057999180704525 4.731370530045738
-0.323247707444444 -0.356865219253275 4.706691489480970
-0.322852932177979 -0.563510844315831 4.833004735290813
-0.335762174766297 0.778004208166202 5.066501229804562
-0.321925136083630 0.831188712062954 4.999085732443414
-0.296713982252475 0.059880745040638 4.754945075243154
-0.311140559046364 0.790810638499653 5.044370301174049
-0.287919122694646 0.765357741200916 4.727403755817377
-0.301143231953867 0.844409200084636 4.966169591351603
-0.305786141734263 0.770586852942197 5.065744032200938
-0.304106160575802 0.747747666906184 5.090340069817839
-0.278591890751981 -0.482545007102879 4.739255568195855
-0.278125053905839 -0.465438508025873 4.751557068911334
-0.278125053905839 -0.465438508025873 4.751557068911334
-0.275085603352729 -0.657920003412288 4.748235173979594
-0.280375232739290 0.206641201378317 4.869446625123918
-0.285130116497178 0.839772643506030 4.965155636976741
-0.272170594164230 -0.542147322672247 4.798419649681942
-0.266241584282953 -0.639503879599262 4.760352058584744
-0.266231949592533 -0.428377945113132 4.736862875522490
-0.265296714476641 -0.409243976129556 4.738266758160324
-0.265296714476641 -0.409243976129556 4.738266758160324
-0.269427865171943 0.066047994215085 4.795263947819422
-0.282836879799294 0.545198847971323 5.024431844529441
-0.255047755273429 -0.544870625844495 4.796503738719146
-0.245673783030000 -0.394443060006427 4.733265522079356
-0.262319519272046 0.781725756873038 5.052791233802856
-0.239609819232555 -0.413447414087742 4.721791583861917
-0.242096820899635 0.091210624666799 4.817806246896744
-0.255307692934410 0.765281426407594 5.107858336720818
-0.355287639132148 0.746692056449714 7.220665169784467
-0.233863764415879 0.197873785696183 4.888713113784113
-0.221997465534673 -0.380571770842078 4.751088228563187
-0.232491567531931 0.423526606122935 5.008108478637522
-0.232491567531931 0.423526606122935 5.008108478637522
-0.221255314535792 0.182922096581740 4.884188616163004
-0.227797696111907 0.516800084231808 5.053392271967470
-0.222887972907465 0.860360321097061 4.927597847797613
-0.214343430581971 0.134480540769808 4.849489787630138
-0.206265492236249 -0.493283180894370 4.775210843773855
-0.208758619288908 0.192630856317989 4.887545505645128
-0.210662854436790 0.394846085940330 4.995107493945100
-0.209610873107591 0.418659591981503 5.009801524450185
-0.193871494058396 -0.390180072431334 4.747055077241771
-0.191351294856731 -0.310405673100373 4.730835489653559
-0.187885824763089 -0.174113135332826 4.630348962746975
-0.212870722672125 0.774578104620012 5.225930260735184
-0.188503610901523 -0.371317459145319 4.741079957071739
-0.199848659617388 0.500721204509626 5.062127508293266
-0.184771723898926 -0.352231821797685 4.722042115282625
-0.185721059927746 -0.482948729251450 4.780694343896359
-0.183424206340820 -0.008229750202047 4.754880056422442
-0.192068812784804 0.749736869739997 5.104929171643996
-0.166658859763359 -0.517106280335280 4.806260422350477
-0.161179143620714 -0.130417906065301 4.666467108413042
-0.155930998533202 -0.457568441414194 4.799445508090449
-0.154353395314225 -0.282562992257765 4.735105034753133
-0.160381849172877 0.799868003719273 5.036947282193427
-0.154788203753381 0.343492155604637 4.954624038355041
-0.139876868057384 -0.334129098992061 4.764617378553234
-0.134353681790896 -0.448196347645692 4.813239565159370
-0.140130110326696 0.813061743018377 5.006239395540117
-0.129935921843684 -0.427716281973540 4.797779435716808
-0.127172375821720 -0.540093322839324 4.846746447815480
-0.120522814559797 -0.212816857105088 4.735295692528446
-0.120522814559797 -0.212816857105088 4.735295692528446
-0.120377546887351 -0.410674356650625 4.812559175041638
-0.117814373280899 -0.346021275125063 4.782629963125954
-0.119098862918964 -0.594988337159877 4.878257550847291
-0.115785237718986 -0.480805778794344 4.837285068913521
-0.113245253185348 -0.173255872275201 4.714722759766157
-0.111094542581376 -0.394600442439668 4.808353738261576
-0.110044186101953 -0.285221866340417 4.771156227898276
-0.117228542150821 0.775605107185039 5.090116187092753
-0.104997079912115 -0.243558748544815 4.757919110667936
-0.104953819335895 -0.552576430056987 4.872117014544974
-0.102292295354544 -0.378467140080816 4.812108014792664
-0.100828308230715 -0.223555923600524 4.750763584971263
-0.100828308230715 -0.223555923600524 4.750763584971263
-0.109191523206835 0.733481991196846 5.124598878508840
-0.088919701925654 -0.298258270351258 4.789239340781250
-0.088919701925654 -0.298258270351258 4.789239340781250
-0.087158482244485 -0.276301503705991 4.777546879636675
-0.084234062513933 -0.255245249927028 4.771411037893521
-0.088623693290799 0.731575413366732 5.141973349206400
-0.080193036401718 -0.235812194741538 4.770167701273255
-0.080503807019735 0.723109201118418 4.961130719519174
-0.076449732229644 -0.377788011577192 4.817272755311110
-0.070473231066465 -0.306594946971552 4.796176779035927
-0.058213417459262 -0.483340140439445 4.861720884718019
-0.059954508856766 -0.358242254110079 4.840973752376362
-0.059162040247997 -0.247894696694308 4.778899084421549
-0.053411243004591 0.741019005152002 5.105191236570019
-0.053411243004591 0.741019005152002 5.105191236570019
-0.042957931486764 0.166421776302873 4.926327016806071
-0.037140894127996 -0.291933329513968 4.816819963182061
-0.029677290207841 -0.198705605170266 4.790717016181643
-0.029677290207841 -0.198705605170266 4.790717016181643
-0.026413428842237 -0.620227405924456 4.942946283014392
-0.022127200137397 -0.307505407712373 4.792487640881935
-0.018096194212195 -0.681030080072394 4.967439682259320
-0.015575394012779 -0.092667848704894 4.833882476778204
-0.013400181239288 0.716610157875040 5.154708479237867
-0.013627729220632 0.784027069834977 5.016513454833680
-0.003185893399498 -0.817922879185598 5.197684103544844
-0.002053072760884 0.698247642304618 5.177357058542309
0.006611958317106 -0.471609717371855 4.717673101935858
0.011823691321046 0.709165349377948 5.141857767852620
0.016721549497366 -0.977036974106533 5.176226936909428
0.015132973868701 -0.644473729809830 4.975300998775244
0.020049369702412 -0.010772612582566 4.948737638729480
0.021909680774086 0.365352739202095 5.084477458232760
0.055207397789732 0.353594158132443 5.103428450699749
0.061190883777792 -0.423411902252374 4.792302725275727
0.061190883777792 -0.423411902252374 4.792302725275727
0.074929976426007 -0.888362560146213 5.239010413096168
0.070203416905243 -0.068250738695000 4.936939460484073
0.079312588002102 -0.148778648210976 4.908382185320522
0.096163702204242 0.670229849191674 5.235725904381391
0.104229879209343 -0.756068766141999 5.028278514151953
0.106585933952632 -0.327317740372800 4.901403994727503
0.109460476596070 -0.382860079219160 4.874851528188343
0.122317177338067 -0.504090395981550 4.822907941415878
0.135926328098200 -0.483485149925290 4.847662961361019
0.156321092184205 -0.012031499731162 5.099614952909584
0.162812489089723 0.464447880149447 5.313945739522560
0.160832197433711 -0.774652938039109 5.087651693998594
0.185034211422469 -0.918121312375578 5.380279553017838
0.168896138258437 -0.356527833307343 4.939544265390554
0.179224421632632 0.170416952525128 5.157824180885567
0.251116026637269 0.227983019110697 5.291712442688355
0.296658112313358 0.194761827635879 5.285665514779646
0.304441757781043 -0.037432052291528 5.231250392241279
0.333935000174311 0.461695282782169 5.465599420902511
0.365495980042043 -0.641971676668532 5.143898687138635
0.365495980042043 -0.641971676668532 5.143898687138635
0.377469222503093 0.048870790768047 5.334364573905344
0.396881792615593 -1.007137130818989 5.349421463322672
0.403615036642516 -0.007068928093076 5.311829977660868
0.420604470066393 0.440283186038992 5.528246863464336
0.410578012577292 -0.337718843880300 5.180763462726636
0.435518158913204 -1.039170774802421 5.344178445350807
0.419380630766655 -0.659692499180284 5.130181475858104
0.484579033177590 0.215630353784573 5.524370828850286
0.471783963495173 -0.405691824543660 5.252529493487469
0.526983810301719 -1.019659095205399 5.405400716485256
0.533169179679719 -0.440244237306841 5.322770748705836
0.547499677793966 -0.115447415041727 5.436058634776455
0.569327874424522 0.192122234186536 5.656081200389028
0.563193643921951 -0.995935084571482 5.403528212557117
0.639563683698650 0.250919812192191 5.696676132640365
0.644628567782197 -0.195175194056190 5.513936150067638
0.648606553375716 -0.171531635127766 5.533187992863498
0.719147134310534 0.247417363517339 5.787699753015342
0.719147134310534 0.247417363517339 5.787699753015342
0.807624963207608 0.318572575642544 5.665403124222812
0.842554747739802 0.046358753134643 5.849599800793576
0.826061244663447 0.318695476526689 5.722192761938709
0.826061244663447 0.318695476526689 5.722192761938709
0.852494125052378 0.024791768605873 5.846054629919292
0.841788120872738 0.307417538602094 5.730946815102887
0.869251571131683 0.292119596761340 5.751120637917459
-0.956883662251120 -0.138503989805571 4.733686296258049
-0.949152314447301 -0.534011450805697 4.786271605221355
-0.889094552615120 -0.062627215340001 4.738198278122058
-0.906372359678666 0.154880885543099 4.919639762001376
-0.908008364181285 0.211109836754671 4.937889163311238
-0.830603240504774 -0.254122495441148 4.648646522757367
-0.934945466927921 0.699518442698642 5.242119090497285
-0.895379352405426 0.774771908525826 5.106150070743838
-0.798951924729310 -0.306088328801344 4.598814887272733
-0.798951924729310 -0.306088328801344 4.598814887272733
-0.802526379924600 -0.259912656244861 4.645775867604904
-0.889595999623767 0.715871012442519 5.204318712476419
-0.817103632369930 0.218909587326665 4.911535775151831
-0.792175686950544 -0.029171782913212 4.819344481645434
-0.809661277119549 -0.591433707584873 4.941600817625690
-0.748580070231819 -0.299045917764446 4.597678654497432
-0.732778713552589 -0.162799989283877 4.705348332091215
-0.801144365400343 0.641391444869022 5.193561907392214
-0.712376500262053 -0.232549193149803 4.632352605597557
-0.766372635293138 -0.646827955947829 5.039439029436918
-0.675899708189278 -0.306481071112172 4.551907222375926
-0.675225029428396 -0.199824568438761 4.653463188088304
-0.739852232512707 0.770749644968043 5.105304011646283
-0.716931497340597 0.653074729470167 5.192730414552344
-0.649019518496065 -0.460697707692850 4.740799254304332
-0.611572426018789 0.066195926738532 4.749645501386397
-0.655626649643398 0.802090419299958 5.093452030508183
-0.595954282606462 0.544562940047533 5.044387989943550
-0.582125571851184 0.388151679822038 4.974933345651464
-0.585351950992891 0.819001187169982 5.017914537631335
-0.585210817016136 0.557122476834603 5.041304651263593
-0.513927344155810 -0.494309175181641 4.743037966133199
-0.533178120696585 0.443525262570064 4.995844475872152
-0.540429787493194 0.811031087418705 5.070725336211510
-0.527473893224991 0.611379412267485 5.030049790315224
-0.496921203245528 -0.494746976158698 4.741296807712032
-0.482105117805143 0.014574083093429 4.736059055584913
-0.506196754741410 0.744791596087988 5.037497894257887
-0.495011882197002 0.698826632885373 5.152823958092076
-0.494410024692268 0.763320648848621 5.157006144216153
-0.434605233720466 -0.057940430322450 4.616591394508269
-0.470954350615775 0.746611738628271 5.126310600898481
-0.351284466947077 -0.141366624448628 4.583509048570533
-0.371997934494711 0.793313825521256 5.117717952504481
-0.337840841825929 -0.025662394923392 4.764215252232201
-0.320318072620786 0.240170752591019 4.840473864562416
-0.299340245994930 -0.516224743366258 4.764955320873365
-0.280585962252134 0.179584075854905 4.852148037348026
-0.268032410412023 0.093383522510394 4.810568771598181
-0.269125241428680 0.555245888380469 5.020319895249033
-0.247130997457205 -0.030658831076594 4.695386315005076
-0.261292261034164 0.404076674552931 4.981470245478621
-0.244123057752257 0.062724475490699 4.805284367015370
-0.255807620972815 0.797774497936590 5.033596837120724
-0.233744545211214 -0.121976864847656 4.649613434705203
-0.237511964979488 0.399745086697637 4.988199224024314
-0.228174614984909 0.502367417668067 5.038637831743970
-0.223959886501074 0.793665372413963 5.040681650854533
-0.205101718160049 -0.574638626440264 4.841188204663925
-0.199439884462650 -0.054548315306471 4.729420352459671
-0.198144967857318 0.046573591623138 4.767457073124774
-0.198215501728708 0.838568019140726 4.948602519522976
-0.189346848578641 0.389591660130323 4.989737817908130
-0.169286952348916 0.844408628139843 5.014792882901835
-0.169286952348916 0.844408628139843 5.014792882901835
-0.164006340363104 0.857797187177071 4.945307888468553
-0.159331306274171 0.511917523225664 5.056097460430914
-0.132139423704115 0.852956512754676 4.944819079230856
-0.127226230504502 0.275593867486977 4.909661627188159
-0.118367962167614 -0.118381282133476 4.701447581309347
-0.111396246784673 0.850164656841592 4.955340589029700
-0.106679361004888 -0.427630926228090 4.818390237483149
-0.097558944346999 -0.358825615767661 4.802215015765359
-0.095587536463319 -0.130538023012670 4.688187403223700
-0.100580994906535 0.819920530591273 4.974228277668730
-0.094248681039617 -0.647450542412176 4.953841626068330
-0.077699419948169 -0.088996007459231 4.723818905340156
-0.062396607253517 -0.096937606059197 4.742992398922495
-0.058957748009515 -0.323594007215338 4.810432112275723
-0.051499864393680 -0.038937867390575 4.797691350438097
-0.052079791412096 0.814244409408466 4.996605710274977
-0.019609312964842 0.766498864382033 5.033509551388004
-0.015367011593781 0.818468506238029 4.993444582033136
-0.001985609624857 -0.244326113394540 4.819547060547877
0.008828814493202 -0.852770810624961 5.197840674309056
0.007820844888993 -0.472318971301123 4.723227754711419
0.011730662746851 -0.454910910901346 4.726649003993153
0.022315846173672 0.365735509826524 5.086420569115936
0.093828584511701 0.692395235120272 5.188885901762478
0.116793996883038 -0.679191367016960 5.053627690046224
0.130715041699207 -0.760306031435816 5.048630067451740
0.136388157593952 0.187151480297890 5.123631720830912
0.145616625076632 0.170847847544255 5.117691256956443
0.145616625076632 0.170847847544255 5.117691256956443
0.163417378126538 0.433701109986118 5.293877802811015
0.163417378126538 0.433701109986118 5.293877802811015
0.156215603809659 -0.462645073420426 4.881694182180835
0.180953129923517 0.149044217830431 5.144657754168959
0.189753416101920 0.419780827993873 5.313266740199842
0.290057256917863 0.527471024610301 5.416795732870540
0.312952798016152 0.206360318846697 5.321240902860636
0.312410895950451 0.141366292569285 5.251436936444644
0.320520246688412 -0.675472718465244 5.181881431217553
0.406760892322710 -0.921505603822900 5.382042087984784
0.423960389069872 0.334726263330161 5.506212987153304
0.432833059274305 0.424849829483766 5.559311678930728
0.408948810679187 -0.244369599652463 5.220867441875042
0.422458872955185 -0.629885713064249 5.118616751861465
0.467841754790826 -1.020084904291968 5.364091471576684
0.465461416661892 -0.962557402336317 5.350674284011219
0.463663542663376 -0.501678215927163 5.211761277978455
0.466872290447038 -0.337769024200756 5.243277525682139
0.473998928003238 -0.524040587882506 5.212409297614329
0.477217517403632 -0.488962581272223 5.216728405234544
0.507524715796698 -0.022897620219070 5.447590269201291
0.516439009676982 -0.366376759230613 5.290264591352202
0.529057262269553 -0.096071412360482 5.429761488074489
0.551707511826960 -0.092989040531472 5.440210094760380
0.542996943823648 -0.319916641347273 5.336104148128420
0.559551506817453 -0.181258843042561 5.419585414109118
0.569312259359901 0.462598284246235 5.499434186853895
0.630820683746218 -0.483131545765988 5.371488091507475
0.630820683746218 -0.483131545765988 5.371488091507475
0.677832008436460 0.072097560667781 5.677583154221272
0.651332121716391 -0.609986972745654 5.361438351621855
0.690977382552475 0.085707416415293 5.678326970588378
0.679551447215056 -0.510632064433507 5.423192033374472
0.718909938390875 0.380388958293551 5.532251552112457
0.760392188217788 0.087504064170717 5.766116930748604
0.731856114377666 -0.540493277578232 5.445603567612780
0.785827393154384 0.032336469620544 5.763911917455546
0.763416396520012 -0.447658538576320 5.514599310961507
0.812258321726685 0.322976094430499 5.603521206545905
0.947605644765064 0.262235539139936 5.778216191359293
-0.963857404299892 0.333504212866258 5.028007721674597
-0.924187259994466 0.197938970963928 4.921227567869054
-0.911108470980383 0.226803758799957 4.929730835791638
-0.900680993600408 0.088727380029037 4.888287483075660
-0.944945377673803 0.695778211185531 5.198861793537759
-0.934880990564990 0.700113049059420 5.250424988668769
-0.837545647503956 0.093042668215317 4.861676952337906
-0.808706333937501 -0.471868153309250 4.782876479646083
-0.814981844680530 -0.635343358407992 4.948892344279438
-0.809899874170222 -0.589788327860613 4.934635855070871
-0.831819672237590 0.547126438297015 5.141907103098315
-0.831819672237590 0.547126438297015 5.141907103098315
-0.791912724141077 -0.599507638309999 4.952855445279710
-0.757044905449989 -0.467800962265960 4.760901507507334
-0.822809902629599 0.624459015990719 5.183582309329815
-0.816220359329509 0.575246660614110 5.152380607904188
-0.809243858394215 0.601569794954931 5.167459846013567
-0.771133434161866 -0.612665023492897 5.053781226112962
-0.740837782285701 0.239359392426899 4.895375509703332
-0.772234395873831 0.640187667936015 5.171357847233347
-0.734560428829747 0.496069744688328 5.086505540355663
-0.678828407571943 -0.462029310489589 4.736246759810531
-0.729100162426288 0.606170905807562 5.141662291920515
-0.648968429199446 -0.461217649519225 4.741636345902162
-0.630744260715749 0.006706645756807 4.723195979201813
-0.676541910395342 0.695303779791369 5.172873639799592
-0.620992857241186 -0.459980221703535 4.744685751546402
-0.606308929358661 -0.120745128132062 4.673417261825795
-0.611825060977530 0.067063211539406 4.746224973140205
-0.595162026241340 -0.457343423102575 4.723209222828300
-0.603240029608313 0.278614262675316 4.869276586795847
-0.572922303967773 -0.311195976535917 4.684954612310483
-0.589549102354183 0.340126602930820 4.890703171717393
-0.554331443246701 0.114950578213068 4.819045180201009
-0.545549744384271 -0.510053696612015 4.767050241047423
-0.541409682751842 -0.455981037661798 4.716623486493537
-0.513966898274198 -0.453019078591096 4.708716935411196
-0.535726665540947 0.313815104250681 4.888612882159439
-0.508510961682808 -0.522627742048129 4.728056801654961
-0.539397551432826 0.721861824461989 5.154261285661912
-0.519254779146007 0.434707888029099 4.996199166804727
-0.520044054919739 0.695916201909245 5.155901801070264
-0.508249768227749 0.729489849924257 5.158262624779820
-0.443424357418742 -0.452536810992597 4.699075433560724
-0.470538823747844 0.700604481667666 5.148184468474659
-0.460430404761928 0.730936206905927 5.125262066619040
-0.378378853416703 -0.016470949288126 4.623390490895186
-0.378378853416703 -0.016470949288126 4.623390490895186
-0.388348392382348 -0.550839504032649 4.828878905207880
-0.339513776644232 0.079027966089236 4.722919971906737
-0.294809236656852 -0.734510668483800 4.803990662930254
-0.275894735356621 -0.521742850263992 4.753335950657814
-0.282445214284341 0.400984495338997 4.949665937458023
-0.252943850584574 0.102013991001853 4.816481870903555
-0.209743724576947 -0.144477327495278 4.645807240274886
-0.228821873004452 0.501794092583625 5.034510498374831
-0.222234545539933 0.411493436790369 5.000805623317955
-0.203362934056821 -0.212180806808483 4.617670423164773
-0.220357871685739 0.685999718176072 5.150292999163466
-0.193419599075055 -0.029706521433589 4.801248873390737
-0.190765076336997 0.147262457835252 4.851262648772734
-0.192751824377966 0.227108652708150 4.873732226676397
-0.189565821336256 0.208651294606637 4.890819859409119
-0.170937442639784 0.675946423473373 5.163215908671348
-0.151737923232794 -0.062171815165399 4.728492169893360
-0.159231947956170 0.512147269897005 5.056650871584642
-0.144599398858104 0.700713114706971 5.161631701458687
-0.125959741656766 -0.610153121631200 4.893001270462411
-0.128631398467641 0.309248373807486 4.961349304923000
-0.103144669997497 -0.410129440235772 4.816732737324124
-0.059733669071608 0.653770453288291 5.140658237031009
-0.059733669071608 0.653770453288291 5.140658237031009
-0.000619016382315 0.422090907958944 5.083213185509974
0.029469489090280 0.349860416888684 5.075202547884971
0.029469489090280 0.349860416888684 5.075202547884971
0.053259139314597 0.129420695409883 5.004613344227021
0.126595237587630 -0.460474246187940 4.840779249668811
0.130356162287223 -0.166670459950217 4.940112667597193
0.154045587023480 0.588359706101709 5.332814073494792
0.181433307416635 0.468526269380228 5.328466232881687
0.205810246911705 -0.751784493478083 5.077478245549486
0.209255491749282 -0.232303174671973 5.034128613157102
0.239709293483097 -0.828263441561137 5.256038568754085
0.239709293483097 -0.828263441561137 5.256038568754085
0.246383079031541 -0.870238699778701 5.251469164486916
0.268455252825808 -0.865233494889768 5.268063250809029
0.300523251451350 -0.769709811435715 5.186544400088082
0.315167815688528 -0.711446890611594 5.206316069808629
0.317390315458402 -0.631684854147976 5.172061787259706
0.331540983541508 -0.744395675946222 5.211753098164556
0.320818127106733 -0.375423712318148 5.076081875995031
0.344985917194548 0.403725462238733 5.454251434235846
0.335781296865077 -0.793348457515680 5.237438726008413
0.332679786462817 -0.573073146200013 5.153162188640509
0.342928160428050 -0.439804325836076 5.060795724967846
0.384940878099135 -0.864128201288631 5.296114468656239
0.370665708009258 -0.422826687061622 5.118551072317741
0.402296812192237 -0.918549675078336 5.365333592706888
0.464774261844701 -0.006169006149162 5.359593416045501
0.472923901795594 -0.873775414050103 5.346060607191936
0.472923901795594 -0.873775414050103 5.346060607191936
0.471717363781865 -0.523120337164946 5.204520346854826
0.477595780614848 -0.488894771261718 5.218016400306754
0.522668121711877 -0.291475150154898 5.324586827744956
0.591505317963140 -0.553526741872737 5.309647611915088
0.595035056850317 -0.599378397970740 5.309382224198483
0.648276410774981 -0.608148971264178 5.351695659413359
0.685423640389545 -0.611461392874760 5.389209865089295
0.716524724534285 -0.669944051365915 5.426382031222917
0.732888534018728 -0.640785621952221 5.427208547639658
0.797602425617036 0.191869724535402 5.852895433370813
0.812285237328549 -0.219225459711121 5.689339203132789
0.838218453758289 0.063617716871678 5.856928383351222
-1.025509710493046 -0.125192359323519 4.739546542962562
-0.903763863629658 -0.611389620291049 4.838168078541576
-0.816736735087646 -0.334446735661643 4.585401604865821
-0.815517908076537 -0.219799362316798 4.655399450534213
-0.815517908076537 -0.219799362316798 4.655399450534213
-0.777545480117628 -0.367719405259684 4.581328501683500
-0.857517016428907 0.485350655497508 5.088669056394952
-0.751817855290221 -0.172447635259082 4.688107066313517
-0.769591138148587 0.335174745513118 4.967360721971825
-0.742107312604146 0.399696605653288 5.018267867381470
-0.715458827305863 0.295648308275674 4.905235334066299
-0.733803664357491 -0.650527586074764 5.070869360908682
-0.733803664357491 -0.650527586074764 5.070869360908682
-0.668379757333580 -0.151162682260096 4.673219087876486
-0.693321884412461 0.123646992864118 4.855812548913102
-0.730421393018091 0.584821175268105 5.139416684135302
-0.680864485694814 0.296744918921005 4.858402830512775
-0.635362245360991 -0.206108473505607 4.616001256545713
-0.508618002809592 -0.523480209333636 4.727247661778949
-0.490242657929873 -0.514157216415531 4.746150265986521
-0.419284971151378 -0.075242847475195 4.617402700944301
-0.361025003671066 -0.158021058071462 4.589715010428981
-0.342896169364440 -0.138402597591634 4.588780997735740
-0.286606349123107 0.730557536428943 4.955982624864520
-0.263448120531936 0.750436933747446 5.115539995528144
-0.226227204959748 -0.508824807715112 4.713534222425254
-0.232397375763150 0.742628271864811 5.114914223465781
-0.206310632772032 0.588926258853155 5.002125599046744
-0.193841038147643 0.226831831165082 4.867266230291091
-0.118586575048260 -0.138019147520252 4.696686792576151
-0.128992569350674 0.724489805980000 5.145592498714747
-0.099832909514102 0.717316689768820 5.145146189939889
-0.070086050595413 0.711634760782123 5.158642326466023
-0.036765228281458 0.708137931171266 5.172210316422492
0.013635938481370 -0.383356787271865 4.743718458181213
0.019377314180276 -0.256528554857094 4.817801934821667
0.047993355147249 -0.957627160471170 5.168930969247491
0.085393582790695 0.577258311648897 5.249712824395032
0.098491343103767 -0.696186251907764 5.043721265383272
0.102619879446484 0.525033036120619 5.242018699142546
0.165376102447550 -0.340880389377291 4.935088880064002
0.202837029689648 0.168465669464195 5.166568833092273
0.217074419031871 0.093870657380723 5.163931477208576
0.289790386026191 0.492062081866542 5.450451592008663
0.301144922841962 0.160786474884535 5.286516445885080
0.359012155708701 0.334820376771611 5.430609231703280
0.343676034553527 -0.367807408732698 5.073320366986446
0.385485615093750 -0.474822867185081 5.143776483677957
0.399990117330398 -0.508387482813046 5.164181161423024
0.399990117330398 -0.508387482813046 5.164181161423024
0.410709888675227 -0.306105166679486 5.201323622564667
0.437886259907520 0.262163105337167 5.489551401405580
0.428418957652658 -0.477315156961299 5.183413732929234
0.443576648262659 -0.293950439563406 5.246985521514482
0.469615658416206 -1.020389619037537 5.370360311676902
0.502863932027572 0.328747548919365 5.609223344191685
0.509406564016749 0.356194392641489 5.606665306194732
0.487782088490609 -0.579265648891544 5.205317472758850
0.510450011488331 -0.134260300546444 5.409639917383263
0.509173037125960 -0.826104154449666 5.361363457113705
0.503251388333218 -0.350053815434350 5.279772499463695
0.524331129490319 -0.036067202013066 5.445860897048989
0.525526434689159 -0.112901466277882 5.418966731353142
0.525526434689159 -0.112901466277882 5.418966731353142
0.540830071820644 -0.955655665289278 5.419936463203718
0.562163411454916 -0.925198637761315 5.428669470259473
0.548617110075491 -0.744429540023043 5.285800018947286
0.596660792726771 0.279310727031852 5.717154262849604
