ply
format ascii 1.0
element vertex 721
property double x
property double y
property double z
property uchar red
property uchar green
property uchar blue
end_header
-0.619606579943415 0.369331824683652 5.100694322350022 240 216 172
-0.647033261490169 0.747274697621431 5.326001125157461 90 99 100
-0.581830402273520 -0.202287020593798 4.814100413184964 57 57 58
-0.581830402273520 -0.202287020593798 4.814100413184964 57 57 58
-0.613139957921322 0.379416246073537 5.101567355763556 135 104 70
-0.587531027740334 0.095508531526768 4.951254007692540 151 136 119
-0.570938876600943 -0.449253728541379 4.870845282662331 105 107 115
-0.558936102518907 -0.202357417182964 4.823993861370242 74 74 76
-0.562520472721857 -0.466236748129909 4.862737228836266 121 123 132
-0.597292409061115 0.549802382443818 5.195759322010712 137 118 87
-0.546285651118810 -0.269147952178563 4.813959669919741 124 115 123
-0.557809632172234 0.061659547782047 4.947679288936727 167 138 103
-0.528490583622857 -0.403467181114355 4.704499349484364 84 85 85
-0.540939407167086 -0.210011624939325 4.814018772653676 106 115 116
-0.539254412829340 -0.279333275832358 4.829231884678176 90 90 93
-0.534442533400152 -0.473859983977969 4.853646467645318 74 82 83
-0.534442533400152 -0.473859983977969 4.853646467645318 74 82 83
-0.583722326676102 0.752191071225935 5.307801468359193 90 99 100
-0.533176070465209 -0.438131113899639 4.855748413359120 84 85 85
-0.531661036834252 -0.465346608005050 4.858150921916832 106 115 116
-0.519700587121036 -0.266725681402753 4.820831189906883 114 123 123
-0.571233942180163 0.730792939139554 5.304629122668617 54 49 38
-0.528666254983215 0.062740855558629 4.925447669294915 167 138 103
-0.511655376064501 -0.374032528794394 4.824465219530885 90 90 93
-0.541913291124286 -0.695324759832302 5.147912860535525 153 135 103
-0.501792369688509 -0.381819433688816 4.817756656198493 133 123 132
-0.501792369688509 -0.381819433688816 4.817756656198493 133 123 132
-0.520168891590513 0.183142413444096 4.992314923260492 96 57 39
-0.517633766334470 0.490150636628598 5.177928361773382 54 49 38
-0.514426784154103 0.524860842488051 5.197734522338895 54 41 33
-0.515904093583524 0.536801727379375 5.206302838826399 134 123 120
-0.472811015268406 -0.224076263615588 4.800043721641698 115 115 115
-0.472811015268406 -0.224076263615588 4.800043721641698 115 115 115
-0.473087141939712 -0.380171583774051 4.820243667115228 121 123 132
-0.467361532372082 -0.232776304380202 4.787309770213105 84 85 85
-0.467361532372082 -0.232776304380202 4.787309770213105 84 85 85
-0.464227218511891 -0.165535793494333 4.775829824892798 105 107 115
-0.467116789243870 -0.302741203755099 4.811728380715010 114 123 123
-0.467116789243870 -0.302741203755099 4.811728380715010 114 123 123
-0.465260229044532 -0.265633687829695 4.805711778697915 116 107 115
-0.479939626579260 0.378439663447941 5.054531500527072 240 216 172
-0.439951798090785 -0.144151859818504 4.772404723673525 121 123 132
-0.437144625034123 -0.165003256181330 4.775950715439953 151 149 150
-0.455037683267635 0.520770224568990 5.141538266074009 121 92 49
-0.451473969019586 0.558508904994842 5.164119318797623 110 78 46
-0.407866230505734 -0.122450571120904 4.757211140107348 99 99 99
-0.409241027725561 -0.504006974080056 4.981590272261532 151 149 150
-0.389268745953090 -0.474936604077920 4.842766105655418 136 149 151
-0.385130657310301 0.541026272155645 5.121197239762994 166 107 52
-0.343782299197365 -0.242223328253213 4.673322110848857 151 149 150
-0.352904192050977 -0.323192287427362 4.818635910654633 135 133 134
-0.352904192050977 -0.323192287427362 4.818635910654633 135 133 134
-0.374152137744413 0.805696065716518 5.188182980650106 151 149 150
-0.362326506004666 0.535872245858768 5.134026479483674 183 122 60
-0.337003097867829 -0.427716846721757 4.845350205204380 179 176 171
-0.322281312718040 -0.123836627117530 4.749513608018503 170 151 118
-0.324218011931971 0.058502886983392 4.868562429206505 188 182 136
-0.310736660687450 -0.577418676494418 4.921667657605740 107 107 107
-0.301870074648789 -0.068992877587447 4.879388131392286 185 168 135
-0.299617676558305 0.364571024377547 5.050421743301840 255 251 200
-0.297869020801012 0.574295767411810 5.169687152147374 155 116 55
-0.273598072391227 -0.586795238526887 4.925021925615209 114 123 123
-0.269053351326921 -0.548785951944051 4.880595928888474 57 57 58
-0.261402390085017 -0.223212897918431 4.840958915055031 153 135 103
-0.280129001398594 0.752418072832573 5.252243300588789 107 107 107
-0.259257118076214 0.191013927911839 5.008914462218122 104 99 87
-0.237294755737101 -0.254751267063414 4.747315092948583 108 99 107
-0.238831794144521 -0.478054499331104 4.865440353593201 84 85 85
-0.234550255347708 -0.457420428297782 4.863619231982271 84 85 85
-0.234550255347708 -0.457420428297782 4.863619231982271 84 85 85
-0.221438199648031 -0.192243557542599 4.740398876383916 185 168 135
-0.246485438718412 0.748283266553960 5.277553645521301 108 99 107
-0.225983798121174 -0.573489788375540 4.915525029721907 57 57 58
-0.226009736982234 0.040729401959140 4.928953865080928 100 90 93
-0.223120402979938 0.072112274912766 4.949199816885902 87 83 71
-0.216844493089971 -0.568058108173128 4.908937251381888 114 123 123
-0.215750682091045 0.080035676888023 4.947827039750702 171 165 138
-0.215750682091045 0.080035676888023 4.947827039750702 171 165 138
-0.202979445488486 0.208671288725196 5.024703064252489 213 201 179
-0.190736612935977 0.031803102186799 4.888833833808241 217 185 135
-0.161367420602606 0.347277640656154 5.076420758405060 153 135 103
-0.151272004870846 -0.565039563012601 4.957424451186028 114 123 123
-0.135580562566573 0.702319462121900 5.281794586629522 72 54 42
-0.115018391416269 -0.389776807945711 4.907459525363953 84 85 85
-0.115018391416269 -0.389776807945711 4.907459525363953 84 85 85
-0.111771665663606 0.719544247270430 5.290633666186023 105 107 115
-0.076135382154313 -0.520532182639397 4.970683945648997 114 123 123
-0.065440852801200 -0.541338556372155 4.994403378333094 121 123 132
-0.059321462789957 -0.252118826996382 4.889533624243311 123 123 123
-0.059321462789957 -0.252118826996382 4.889533624243311 123 123 123
-0.060733578734473 -0.043810255891770 4.916925938559036 155 116 55
-0.062786645142862 0.709434230245739 5.300206570241883 105 107 115
-0.055010338596380 -0.703307560680654 5.072486560266166 98 107 107
-0.054174147298506 -0.030442653202552 4.934534960384103 152 132 89
-0.054174147298506 -0.030442653202552 4.934534960384103 152 132 89
-0.048347270110140 0.704021163043870 5.288301830714738 106 115 107
-0.024099325389945 -0.191365338865778 4.960824310571309 117 107 103
-0.020479962370859 -0.411691247504763 4.827193176638327 153 135 103
-0.014127298006906 -0.979952189994390 5.314235881744603 253 254 248
-0.014127298006906 -0.979952189994390 5.314235881744603 253 254 248
-0.012710844934096 -0.960666823043663 5.318194375929441 253 254 248
-0.012710844934096 -0.960666823043663 5.318194375929441 253 254 248
-0.010363409336282 -1.025480892299856 5.313263444675282 255 255 255
-0.006487652557561 -0.951119653166669 5.316819789872771 40 41 42
0.003966264513759 -0.705935327396114 5.103130422413154 57 57 58
0.011316732343575 -0.244234613762999 4.930048387087635 107 107 107
0.013899229069521 -1.013386520980296 5.290419004268989 253 254 248
0.013899229069521 -1.013386520980296 5.290419004268989 253 254 248
0.015479757557126 -0.967298685810116 5.288460354013221 234 249 219
0.020597259080808 0.303907495601850 5.180384639312474 219 166 83
0.030610033151401 0.415075056819524 5.241753379947651 110 78 46
0.035444873041226 0.371024714963306 5.214119879877621 150 122 101
0.039408221721525 -0.674317920587322 5.107707728286901 121 123 132
0.039408221721525 -0.674317920587322 5.107707728286901 121 123 132
0.072725425217504 -0.832866993538395 5.290352468742014 121 123 132
0.082849631960982 -0.776055206207681 5.188847265624887 18 15 13
0.086422951501573 -0.833521202819220 5.244510360920309 121 123 132
0.091400486544653 -0.766814834576973 5.179465780823477 135 133 134
0.100554560088119 -0.858897923313269 5.396071821374133 124 115 123
0.105037893384470 -0.808506202725831 5.137474085931523 114 123 123
0.151026463839364 -0.946174183306854 5.484772235240491 248 102 56
0.150360615549295 -0.512134660744436 4.950261641282633 255 251 200
0.174036500644972 0.571658773931719 5.479906085914613 105 107 115
0.222816400891932 0.537977414125083 5.487241125218188 106 115 116
0.218245165159386 -0.368250008557990 5.092309712267086 107 107 107
0.231180093783153 -0.835266083350905 5.291056490944627 197 54 24
0.245049671421105 -0.894658784969277 5.400369277019629 157 51 25
0.248315514558948 0.255481910605901 5.420187382207716 23 24 25
0.248315514558948 0.255481910605901 5.420187382207716 23 24 25
0.252937593992580 0.451383928917961 5.521826674822929 18 15 13
0.263091512788921 -0.894171765504156 5.392882315873974 157 51 25
0.280872254592768 0.192053940490702 5.388400712217928 155 148 106
0.274001134528691 -0.466783388988049 5.176797183965877 89 99 89
0.291857130869539 0.137055377139778 5.397395042742433 182 132 57
0.311964528146021 0.503381296245478 5.567154382078170 114 123 114
0.302808255606997 -0.416543144851294 5.167833693305355 90 90 93
0.328101540242170 -0.736434753762931 5.309893877297405 221 104 69
0.444901486161207 -0.991205852854229 5.469191085366954 117 107 103
0.455420046467281 -0.143734487195571 5.428026223561442 72 54 42
0.463527365873304 -1.072472239580078 5.496745561160055 134 123 120
0.505575641703560 0.381760432390197 5.740134764770681 54 49 38
0.507186590389279 0.369089852979586 5.729519502311467 255 255 255
0.476500657839422 -0.352356948977335 5.346583343008039 153 156 159
0.519108600158529 0.390439735438649 5.748853712205652 133 123 132
0.549133861526354 -1.031857079711479 5.555599156157390 216 90 58
0.551328043861228 -0.035953289074492 5.590295098197015 192 195 182
0.550786670281252 -0.844800662477829 5.444613712319986 202 68 33
0.603281890612843 0.187250762321530 5.798546853944907 37 23 18
0.569978914124807 -0.634668573112607 5.416845027104333 124 43 20
0.631740464825720 0.279153119273611 5.842983179707605 119 115 105
0.582806788365885 -0.763774929169649 5.357300149491313 255 255 255
0.644751052442895 0.288974203129508 5.846820862478515 255 255 255
0.632507376131977 0.039918215795933 5.713832146078094 170 153 138
0.636386439328407 -0.412950033579745 5.505846457659006 212 211 204
0.631411076368895 -0.766873790445939 5.427269683069881 255 255 255
0.745167297745449 -0.471994334552137 5.600530438973434 69 57 58
0.784024536236867 -0.185079937335988 5.785571682412301 151 136 119
0.784024536236867 -0.185079937335988 5.785571682412301 151 136 119
0.809605309564612 0.190144605886121 5.976208891598521 116 107 115
0.812361869221218 -0.285079084306522 5.764826452789745 201 187 170
0.790814108360075 -0.722876400796625 5.535335238480307 136 149 151
0.963592487049458 0.234994704027134 5.905028420767856 121 135 137
1.008513891226926 0.239211004793942 5.954802693122822 150 139 136
-1.014864342553875 -0.115269333797744 4.930409463079924 87 83 71
-1.002407845523225 -0.141879285781498 4.929494004027024 99 99 99
-0.969782606713414 -0.198902429035046 4.933782260486624 107 107 107
-0.968992201843268 -0.296830144364757 4.950465170644368 99 99 99
-0.962594482623580 -0.355248958409855 4.958995972815486 115 115 123
-0.959264217175757 -0.393301798629056 4.959948563137881 114 123 123
-0.959264217175757 -0.393301798629056 4.959948563137881 114 123 123
-0.948783949839030 -0.217401384573935 4.921412858672913 106 115 107
-0.948783949839030 -0.217401384573935 4.921412858672913 106 115 107
-0.957248498092097 -0.502384557516011 4.977954322706012 74 74 76
-0.946715745914222 -0.178340734667398 4.930694923890823 107 107 107
-0.946715745914222 -0.178340734667398 4.930694923890823 107 107 107
-0.953676627170990 -0.491323608892149 4.974921140049983 115 115 115
-0.942771248573812 -0.137947252220347 4.917591872249808 105 107 115
-0.948490448396810 0.033916461681304 5.043228956046748 153 135 103
-0.949736723053327 0.050815571242323 5.041240425200390 133 107 101
-0.900856795788132 -0.294104108722328 4.792659688526760 84 85 85
-0.924175055097307 -0.215419018250017 4.924873513118609 99 99 99
-0.919839122737388 -0.176955473449420 4.903766167279124 89 99 89
-0.930690835015677 -0.490607683778571 4.975824677221449 115 115 115
-0.978188912267030 0.807571790356550 5.267347685175709 149 140 149
-0.918201333859960 -0.429756109335725 4.949722368758677 115 115 115
-0.918201333859960 -0.429756109335725 4.949722368758677 115 115 115
-0.901085010259166 -0.487527262640696 4.955176712893303 114 123 123
-0.901085010259166 -0.487527262640696 4.955176712893303 114 123 123
-0.884344007441290 -0.134866233855268 4.890106138226860 99 99 99
-0.925666135004522 0.184612124331193 5.128668996733381 72 54 42
-0.903749170357748 0.038355834115880 5.031302411627570 153 135 103
-0.911814957740444 0.109103993368628 5.072340108924632 70 69 67
-0.911814957740444 0.109103993368628 5.072340108924632 70 69 67
-0.889469055836079 -0.643823005066926 4.993308337051586 253 254 248
-0.905381284280986 0.207952959001308 5.091397731210840 138 132 104
-0.905432267763590 0.158526357188040 5.098053046678029 80 67 51
-0.933101271228821 0.825937432659832 5.256119711447146 153 156 159
-0.950157827387728 0.755780685763197 5.362425516069518 133 123 132
-0.887779825489899 0.803470773618405 5.193212935239124 133 123 132
-0.832932574368809 -0.504458845738450 4.944938018989838 115 115 123
-0.842625549175617 0.089478107116246 4.997949955870260 185 166 121
-0.873025465270495 0.795878785894621 5.265279210028157 133 123 132
-0.830996012078838 0.203241814039300 5.064223947881666 183 154 120
-0.773145778705588 -0.303051477761754 4.764671559994405 240 216 172
-0.786638823970358 -0.169065751408577 4.860112127118403 104 87 75
-0.848305583536863 0.515703520455064 5.299634751590376 54 49 38
-0.786771019068979 -0.480823233832680 4.922273666822675 114 123 123
-0.786771019068979 -0.480823233832680 4.922273666822675 114 123 123
-0.846399357485334 0.540462202717902 5.313276985139065 40 41 42
-0.749411469162176 -0.318968047442924 4.713452160405430 166 107 52
-0.770340549295173 -0.169636067386862 4.854446450549140 122 115 88
-0.764268747201802 -0.228586030474977 4.834429255032171 54 49 38
-0.847277223881545 0.747778343096057 5.356549656445815 84 85 85
-0.777660745387038 -0.499808222750243 4.922036488373350 122 132 122
-0.842444968501755 0.567854190768153 5.333346972595570 54 49 38
-0.823145268782441 0.516187251115526 5.288711505939443 37 35 34
-0.820420194602126 0.541308977234542 5.296484769608353 54 41 33
-0.817722158356288 0.569617974689313 5.318009433860674 37 35 34
-0.816961841534517 0.586266872070628 5.325690437751602 136 119 103
-0.771907447745938 -0.512661982507283 5.049595814729253 135 133 134
-0.748353566641395 -0.033545762823780 4.896800376115215 121 92 49
-0.799198527371217 0.433785098418912 5.230906663138919 104 99 87
-0.731262397894730 -0.225039832763378 4.802578284972087 72 54 42
-0.760539625117461 0.057665209362484 4.999845673371214 72 54 42
-0.812293114605397 0.669639640615531 5.380494037731109 134 123 120
-0.726705195469866 -0.180457330725707 4.834171108701967 54 41 33
-0.802660107541232 0.656795298269294 5.359372725787475 80 67 51
-0.720813195693620 -0.164274827992612 4.839413331078585 86 73 66
-0.774136683554144 0.435031190017918 5.216206624078606 37 23 18
-0.766861899792189 0.484858741636596 5.254584375681888 122 115 88
-0.722770020791083 0.198372493237645 5.053276065468943 72 54 42
-0.755446509170907 0.546493879465003 5.287386232134711 37 35 34
-0.751506946692425 0.573264709496982 5.305275595721628 37 35 34
-0.741507144409955 0.535557597812650 5.278955620801164 118 103 87
-0.741507144409955 0.535557597812650 5.278955620801164 118 103 87
-0.734703396874819 0.504438909743622 5.251043786682345 37 35 34
-0.733395476632715 0.789832296925193 5.279736857266637 107 107 107
-0.726941922002127 0.575002927795838 5.294302498852093 32 33 24
-0.725297238484947 0.674461624967702 5.343112709393628 134 123 120
-0.637474979803779 -0.389960942704724 4.865225434842577 135 133 134
-0.693995399332211 0.737284262421149 5.333759445468474 32 33 24
-0.626761427308670 -0.411001851789571 4.879167309659974 121 123 132
-0.626761427308670 -0.411001851789571 4.879167309659974 121 123 132
-0.664784614038061 0.829241815356930 5.201386857660052 135 133 134
-0.679498424138871 0.745316822002429 5.339241978541710 99 99 99
-0.610267260175814 -0.116563377184330 4.816646368202533 84 85 85
-0.612391096191574 -0.389535201570587 4.853745046289159 114 123 123
-0.612391096191574 -0.389535201570587 4.853745046289159 114 123 123
-0.610243283045888 -0.146416159533689 4.825088641343659 64 66 55
-0.666573641557216 0.756265681341500 5.300983553299691 84 85 85
-0.637193522012293 0.816472107072422 5.096178000514517 135 133 134
-0.631035559289038 0.829656093328055 5.182412433734746 123 123 123
-0.582567664740966 -0.399045476360020 4.850944812213290 109 99 99
-0.582567664740966 -0.399045476360020 4.850944812213290 109 99 99
-0.636239029033470 0.761835765049492 5.307581491105080 84 85 85
-0.576970321243955 -0.348422991010220 4.848874596532546 115 115 123
-0.569733597734396 -0.132881645259112 4.805194632584626 90 90 93
-0.565057661137218 -0.192276581695522 4.809212819337547 107 107 107
-0.565057661137218 -0.192276581695522 4.809212819337547 107 107 107
-0.549380500776919 -0.308962518166183 4.822815261391526 123 123 114
-0.549064062590615 -0.250639639733583 4.816532266732764 124 115 115
-0.549064062590615 -0.250639639733583 4.816532266732764 124 115 115
-0.596390325768620 0.802521006936407 5.258824525143957 115 115 123
-0.544501901075701 -0.230588796872075 4.818262212645492 114 123 114
-0.580943845774975 0.538658161214758 5.206114868521404 86 73 66
-0.534024395680338 -0.169918010855768 4.814962974963254 107 107 107
-0.532550901508908 -0.227947788125431 4.807420236929332 115 115 115
-0.534249451591369 -0.366574124531213 4.846289725410531 115 115 115
-0.525201190637815 -0.150872823078767 4.815679253666816 107 107 107
-0.524196325567548 -0.248684593336180 4.814219399144476 133 123 132
-0.524196325567548 -0.248684593336180 4.814219399144476 133 123 132
-0.543537809640434 0.193381846280316 4.995861230112000 70 69 67
-0.564854647137803 0.532041849907105 5.214232146012968 170 166 155
-0.566161053999476 0.799577684406542 5.217327455999626 121 123 132
-0.563895112974535 0.752273247184159 5.295709517889470 90 90 93
-0.507972940531540 -0.168091212324485 4.786731189460791 115 115 123
-0.537953873023275 0.409684004194807 5.130410523906490 122 115 88
-0.537953873023275 0.409684004194807 5.130410523906490 122 115 88
-0.499557037722146 -0.247302454752617 4.800680774653546 114 123 123
-0.499557037722146 -0.247302454752617 4.800680774653546 114 123 123
-0.501346318927108 -0.225314487731878 4.807674105818899 106 115 116
-0.501346318927108 -0.225314487731878 4.807674105818899 106 115 116
-0.551824664659612 0.702196406652020 5.310115390620388 40 41 42
-0.492640538937084 -0.107854066621183 4.780160286797297 107 107 107
-0.492640538937084 -0.107854066621183 4.780160286797297 107 107 107
-0.493104455504569 -0.342422810322129 4.815908548469208 123 123 123
-0.489278887056343 -0.078887440659370 4.781598938070461 87 83 71
-0.482929855594351 -0.166787011215716 4.780826581407092 105 107 115
-0.482929855594351 -0.166787011215716 4.780826581407092 105 107 115
-0.484690309946307 -0.400502583964267 4.822305221640394 114 123 123
-0.484690309946307 -0.400502583964267 4.822305221640394 114 123 123
-0.470726202759297 -0.185013320699058 4.792505264830131 124 115 115
-0.492610095061293 0.720443037099622 5.255118274966765 37 35 34
-0.492610095061293 0.720443037099622 5.255118274966765 37 35 34
-0.494521364868597 0.767877362706604 5.262740279460303 84 85 85
-0.446045395319038 -0.483510398407491 4.850058635944694 137 140 143
-0.431122373312886 -0.050925575527001 4.757456850766633 151 121 87
-0.431911554924008 -0.445003086317848 4.834923371106396 151 149 150
-0.431911554924008 -0.445003086317848 4.834923371106396 151 149 150
-0.451925854927718 0.573024669650852 5.171350688879486 110 78 46
-0.419523681631621 -0.467792036436721 4.837530584305561 137 140 143
-0.416309155704325 -0.310208920121281 4.818577945601398 121 123 132
-0.416309155704325 -0.310208920121281 4.818577945601398 121 123 132
-0.403910409645560 -0.170498334589637 4.718646116553456 151 149 150
-0.404991024766674 -0.472498867145611 4.839711739883887 151 149 150
-0.403906465809143 -0.253708969409703 4.811638838820225 137 140 143
-0.390360825297514 -0.316013541190696 4.819125755500781 133 123 132
-0.383185449890408 -0.296932687022128 4.810892271901859 136 149 151
-0.383185449890408 -0.296932687022128 4.810892271901859 136 149 151
-0.382219665059873 -0.396429131364994 4.833408308947965 137 140 143
-0.370080670551693 -0.236222464305501 4.690607945279240 153 156 159
-0.366659785609147 -0.217206330031635 4.712590941033837 136 149 151
-0.376617049841729 -0.052774604308257 4.836153738395507 183 154 120
-0.361229196828828 -0.303370207216464 4.830648923219868 137 140 143
-0.361229196828828 -0.303370207216464 4.830648923219868 137 140 143
-0.361523959692262 -0.401739782069955 4.848741819602407 137 140 143
-0.379029964479379 0.645898471185027 5.184294720023874 152 105 51
-0.334870802214453 0.042831731532037 4.854584448691788 151 121 87
-0.332556582354920 -0.386735679361953 4.834209462865748 137 140 143
-0.332893719627807 -0.601699326574281 4.972091236186440 37 35 34
-0.344511284727157 0.787124224186281 5.199628884917962 107 107 107
-0.329992737863437 0.841427306088621 5.125707877886889 137 140 143
-0.304564807915204 0.044695765704398 4.877128697554432 185 168 135
-0.319053474185338 0.799875232163872 5.173889146479540 114 123 123
-0.294419083653953 0.771922797926507 4.834945009879379 153 149 137
-0.308490219852207 0.854571348521380 5.088856582273238 135 133 134
-0.313616544300412 0.779057243402649 5.196712337760106 117 107 103
-0.311976164830954 0.755602091687743 5.223323982878457 115 115 115
-0.286790677713932 -0.516927206221708 4.867308654236842 137 140 143
-0.286307989471689 -0.499224713834607 4.880091163041793 153 156 159
-0.286307989471689 -0.499224713834607 4.880091163041793 153 156 159
-0.283514222230661 -0.698969537698920 4.879468282909950 54 41 33
-0.287775978464592 0.196334115832978 4.995440846591254 104 87 75
-0.292016647384202 0.849539332903903 5.086553329955344 151 149 150
-0.280406524405815 -0.578985444481074 4.930981654557112 40 41 42
-0.274382848833543 -0.679811004795910 4.891345910427621 185 166 121
-0.273941080969898 -0.460676948313459 4.862968129150338 149 140 149
-0.272943357828681 -0.440854488981230 4.864183711191549 153 156 159
-0.272943357828681 -0.440854488981230 4.864183711191549 153 156 159
-0.276541357690523 0.050980951933075 4.917898499692449 104 99 87
-0.290181880550868 0.546204106196244 5.155071344555259 110 78 46
-0.262741180080410 -0.581670577617268 4.927629665190515 40 41 42
-0.252685289100720 -0.425396598941936 4.857099278033198 136 149 151
-0.268814767791073 0.789860561191510 5.179333387557369 106 115 116
-0.246447118356140 -0.445012355549823 4.844689257752946 149 140 149
-0.248420094540105 0.076897619819139 4.939326425611108 109 99 99
-0.261735588236742 0.773067670309391 5.237835788636254 107 107 107
-0.239942900969496 0.187053273908574 5.012532789931075 104 87 75
-0.228318298851041 -0.410967440979747 4.874025808320584 121 135 137
-0.238469036886194 0.420141084959781 5.135974138312585 109 99 99
-0.238469036886194 0.420141084959781 5.135974138312585 109 99 99
-0.226979164492929 0.171549723576562 5.007098523764326 149 122 118
-0.233613302320587 0.516425781826857 5.182245941537738 192 195 182
-0.227945035317847 0.869592664398596 5.041727849586638 167 155 159
-0.219873580702010 0.121489321330135 4.970294804092901 87 83 71
-0.212346213686992 -0.527729718020947 4.900284141768939 114 123 123
-0.214122406295963 0.181515631973749 5.009544973706004 86 73 66
-0.216026337002930 0.390342585647536 5.120909482306224 69 57 58
-0.214938595786243 0.414932617535540 5.136190883687302 117 107 103
-0.199374758273555 -0.420788209877578 4.867914417994879 123 123 114
-0.196647142843727 -0.338152831862652 4.849027945494633 135 133 134
-0.192716172061016 -0.197034878015279 4.739821546309630 150 122 101
-0.218295560345414 0.782552570642639 5.360132887661109 99 99 99
-0.193817975809831 -0.401214528666355 4.860813091239235 135 133 134
-0.204903746087434 0.499592599164552 5.189681158779115 104 99 87
-0.189908087158806 -0.381415408862389 4.840205046107215 121 123 132
-0.191189771837685 -0.516926150959723 4.904518462774210 121 123 132
-0.188119754575650 -0.025915467629765 4.869489786612808 153 117 69
-0.196718046318783 0.756197539418891 5.230283265699785 107 107 107
-0.171671648218552 -0.552289197636005 4.930850067531260 115 115 123
-0.165301557004825 -0.151963793056271 4.775646915733688 167 138 103
-0.160550191868716 -0.490520673130086 4.921772549156414 134 123 120
-0.158592577477890 -0.309268335265756 4.850526072777239 115 115 123
-0.164045186719463 0.807017291074085 5.154500183482078 124 115 115
-0.158609954288797 0.336889773790479 5.074471550011801 255 251 200
-0.143838035712518 -0.362611689313292 4.881628683253149 136 133 121
-0.138381054257279 -0.480748864322273 4.934722298628258 123 123 123
-0.143228992329672 0.820146373599871 5.120124631349094 135 133 134
-0.133794063573713 -0.459478519190145 4.917642600016051 114 123 123
-0.131147429235434 -0.576029138967223 4.971608153942746 115 115 123
-0.123784200147737 -0.237133076400028 4.847216446092642 114 123 123
-0.123784200147737 -0.237133076400028 4.847216446092642 114 123 123
-0.123976207597730 -0.441846997318502 4.932387124855222 106 115 116
-0.121232562740763 -0.374868595757379 4.899276417840150 123 123 123
-0.122979107700762 -0.632938922329923 5.005166941435102 41 50 50
-0.119370039035231 -0.514502088776126 4.959590329399012 114 123 114
-0.116253086422853 -0.196236693365686 4.824184329622781 115 115 115
-0.114423470465597 -0.425157122646203 4.926936967075276 105 107 115
-0.113168414239573 -0.311979492842216 4.885638055393090 135 133 134
-0.119886690989389 0.781722530627677 5.208347382224311 114 123 114
-0.107938243186356 -0.268883977440412 4.870415216489950 115 115 115
-0.108381458197006 -0.588870068075347 4.996910863019011 122 132 122
-0.105378881076114 -0.408438736233583 4.929972437211145 107 107 107
-0.103631769557099 -0.248206301827848 4.862223770197112 114 123 123
-0.103631769557099 -0.248206301827848 4.862223770197112 114 123 123
-0.111704431735792 0.738478243620111 5.245440314100608 107 107 107
-0.091550828802700 -0.325416658967709 4.903359448424719 123 123 114
-0.091550828802700 -0.325416658967709 4.903359448424719 123 123 114
-0.089699335303456 -0.302714012070955 4.890594774468002 123 123 123
-0.086667917406874 -0.280952403641061 4.883601957996612 115 115 115
-0.090640773125315 0.736331420129921 5.262502305583187 106 115 116
-0.082513374494262 -0.260865795432023 4.881573043665240 123 123 123
-0.078881705487392 -0.407630467800529 4.933469935849193 89 63 29
-0.072647158400775 -0.334003473452252 4.909661637943997 115 115 115
-0.060257093012423 -0.516958975310078 4.982047151115003 115 115 115
-0.061888525777407 -0.387550122934692 4.958225372473873 110 78 46
-0.060976750354293 -0.273327151915948 4.889668237515463 121 123 132
-0.054547497919712 0.745432185295916 5.220636011513458 121 123 132
-0.054547497919712 0.745432185295916 5.220636011513458 121 123 132
-0.044053840220993 0.153741647277581 5.039779336960486 250 183 91
-0.038497757770550 -0.318823857380286 4.929035826843339 57 57 58
-0.030767182135198 -0.222532916024926 4.899213337844606 115 115 115
-0.030767182135198 -0.222532916024926 4.899213337844606 115 115 115
-0.027865090217000 -0.658707770273812 5.068017002727097 135 133 134
-0.023149328819761 -0.334764767160568 4.902091924727372 121 92 49
-0.024191042878398 0.765549290187693 5.386467951587877 123 123 123
-0.019421426623205 -0.721699567878615 5.094305622354709 105 107 115
-0.016283355938804 -0.113252199736752 4.942357553142591 171 123 64
-0.013646136875081 0.720069073118417 5.270936237237059 107 107 107
-0.013827528121705 0.788639375474711 5.122523833830596 135 133 134
-0.004179356930330 -0.865147382781753 5.343090529490974 133 123 132
-0.002030890563426 0.701187636668151 5.294880872415849 107 107 107
0.006113360527307 -0.503741378486103 4.822823884378476 255 255 255
0.012141669921611 0.712060102054185 5.255585067184263 105 107 115
0.016040456102014 -1.029815562592546 5.320262504139088 84 85 85
0.014701950550304 -0.683637302048151 5.099889608472515 115 115 115
0.020220989958281 -0.029021969575969 5.061236378472476 171 165 138
0.022334289504847 0.358366000087334 5.199751240395234 110 78 46
0.056370679695261 0.346071087783714 5.217859376334389 119 98 71
0.061929749491983 -0.454019997494979 4.897697834945973 138 101 51
0.061929749491983 -0.454019997494979 4.897697834945973 138 101 51
0.076044339201882 -0.937763582797606 5.383127087158078 153 156 159
0.071431788452323 -0.088288991412271 5.045979819549431 219 166 83
0.080667897049008 -0.171200491348300 5.016063037174220 218 156 83
0.098308385402563 0.671499150646174 5.350481346644557 107 107 107
0.105858306519744 -0.798624893559697 5.151689902223247 121 135 137
0.108423980543665 -0.355153000352296 5.009554589074152 155 148 106
0.111308532156665 -0.412321755627249 4.981901106582509 217 188 152
0.124265112362434 -0.537004985719989 4.927039810222886 166 107 52
0.138204101241330 -0.515816014346981 4.952363161817541 134 87 64
0.159494492948493 -0.030663796872891 5.212686567159841 201 187 170
0.166426315051505 0.459726959814834 5.433220006943344 40 41 42
0.163869810965803 -0.817804236034810 5.212066680284162 136 149 151
0.189029707979335 -0.968328362577265 5.526643972788754 252 114 69
0.171974068063440 -0.385149833183676 5.046047760071228 171 123 64
0.182937550800552 0.157026553667283 5.270169216100706 135 104 70
0.256481114949718 0.216005449170706 5.407712322575667 86 73 66
0.302814426536053 0.181635293495925 5.398488789090257 219 200 153
0.310689128842132 -0.057150950156909 5.343803685041600 122 115 88
0.341161215038419 0.455977420435700 5.584246519314765 104 87 75
0.372660883017834 -0.679353396414566 5.255783152294041 248 236 218
0.372660883017834 -0.679353396414566 5.255783152294041 248 236 218
0.385204568057956 0.031404286070600 5.447553070077534 188 148 72
0.405451935141944 -1.057852695412221 5.480079827409205 255 255 255
0.411815035432790 -0.026158038481920 5.423190100725077 235 234 231
0.429509285273218 0.433509521710474 5.645878046056931 123 123 123
0.418541946576066 -0.365926403643368 5.287647341748483 136 133 121
0.444764044920172 -1.090425774178085 5.472078045144989 104 99 87
0.427432607489960 -0.697196215660324 5.238088623683587 212 211 204
0.494769353480838 0.202451955680286 5.641973062846060 47 33 23
0.480875002095707 -0.435875612108458 5.360749479111883 155 149 120
0.538083834599378 -1.069702112571387 5.531245801598750 169 187 193
0.558522675908045 -0.137873824397933 5.548796950516433 201 187 170
0.581383874224692 0.178048753433412 5.777717901522325 72 54 42
0.574945134252086 -1.044855799750203 5.526894729429450 121 135 137
0.652890617282615 0.238169975169810 5.816378447537584 107 107 107
0.657490774997717 -0.219968757143730 5.627369723410367 184 170 152
0.661461264525778 -0.195668124896852 5.646638629669333 188 181 159
0.734155024218197 0.234320261505279 5.909378150251780 70 69 67
0.734155024218197 0.234320261505279 5.909378150251780 70 69 67
0.822579206979722 0.306623498470532 5.770961541259316 124 115 123
0.859792918158718 0.027510144934585 5.971275902545087 170 151 118
0.841494500880300 0.306740261647477 5.830129449810203 123 123 123
0.841494500880300 0.306740261647477 5.830129449810203 123 123 123
0.869909673399566 0.005341465158278 5.967442037617830 255 255 255
0.857558525229157 0.295134594077931 5.839168275934375 115 115 115
0.885468261239567 0.279361065783293 5.859358526816125 115 115 115
-0.993439526551064 -0.161078758876714 4.912696414818516 90 90 93
-0.987231911529265 -0.575986850311229 4.974577645684136 121 135 137
-0.921692464758460 -0.081667888333410 4.910308200683753 151 121 87
-0.940071884334383 0.145646506341170 5.101670315749413 170 153 138
-0.941664930042381 0.204410037535123 5.120140524299126 118 103 87
-0.860387946245187 -0.281653171453118 4.812766129209658 152 105 51
-0.927160483796325 0.792247627644158 5.287745000981474 123 123 123
-0.827047033034790 -0.335715761047218 4.757500216187260 153 117 69
-0.827047033034790 -0.335715761047218 4.757500216187260 153 117 69
-0.830856169195104 -0.287549842169128 4.806786355935516 171 123 64
-0.921866131430727 0.731128174587939 5.393405837865903 107 107 107
-0.845933773329751 0.212022003688381 5.084084578264518 80 67 51
-0.820168489486702 -0.046884810407218 4.988051352622288 138 101 51
-0.841177614605486 -0.635470020824943 5.129054046559180 40 41 42
-0.774215491147299 -0.328168604148932 4.752071021587813 155 116 55
-0.757751659761316 -0.186152197281637 4.863171388252543 69 57 58
-0.829228604926828 0.652371504991278 5.375869658554252 74 74 76
-0.736243849106988 -0.258696768103650 4.784435150239442 87 83 71
-0.697978859273968 -0.335499171167548 4.697140192997580 151 121 87
-0.697441231715702 -0.224578559755615 4.803771458230119 54 41 33
-0.764182846367145 0.785678775290776 5.273641233183015 109 99 99
-0.741023495029363 0.663422748470658 5.367456709772578 86 73 66
-0.671297382961592 -0.496757827774057 4.898934098605103 133 123 132
-0.630711023948890 0.052133464198306 4.896615350137021 151 106 69
-0.676135706801292 0.816852934114050 5.253341376188077 121 123 132
-0.614463447707685 0.548962333292118 5.201072260908265 102 67 33
-0.600188535462483 0.386453118567205 5.129009807980083 119 98 71
-0.602631230773388 0.832983955413050 5.166719895713007 150 139 136
-0.603239959809184 0.561859198812704 5.196684957790974 240 216 172
-0.530573569897162 -0.530828443885384 4.890456547522763 37 35 34
-0.549238046291137 0.443463256231455 5.145888053406859 69 57 58
-0.556220185802508 0.824268716327535 5.219698409222857 121 123 132
-0.543061173670203 0.617360653910472 5.178878005136699 80 67 51
-0.512885250641738 -0.531133071905463 4.887064265052300 41 49 40
-0.496237716492247 -0.001788346113468 4.872678170683957 155 116 55
-0.520719567569548 0.755130774394050 5.182623629340291 84 85 85
-0.509656044012145 0.707861394872114 5.305866654505326 23 24 25
-0.508908828251623 0.774584237680143 5.308986786369575 84 85 85
-0.446758816172194 -0.076909420873588 4.742387473362476 104 99 87
-0.484513267039403 0.756847430030672 5.274532459121295 74 82 83
-0.360730869143759 -0.163258525306517 4.701915644610481 170 149 106
-0.382029566499673 0.803652350257608 5.256774240723435 99 99 99
-0.347157967888674 -0.043720840272214 4.891421886705552 172 149 70
-0.328817213735884 0.231183018923894 4.967347461774467 219 166 83
-0.308337795525729 -0.552083385826383 4.896602740786488 121 135 137
-0.287991077366962 0.168366811487913 4.977561802327680 136 119 103
-0.275095902672671 0.079225736354294 4.933694907451287 107 107 97
-0.276036758159008 0.556408785911895 5.149398164517376 254 253 235
-0.253515621790759 -0.048944742160768 4.811419501389562 204 154 80
-0.268087197776966 0.400255846956860 5.110100807852926 80 67 51
-0.250511596932746 0.047468155777176 4.926838488141675 122 115 88
-0.262053052004661 0.806215907903597 5.158187098548098 124 115 115
-0.239798598713179 -0.143240355540126 4.762896878773297 200 172 133
-0.243626085993551 0.395602919517460 5.115538385302307 72 54 42
-0.233996224051667 0.501495182097299 5.166615802276277 104 87 75
-0.229328782125146 0.801562152668794 5.163393675792287 123 123 114
-0.211389276220093 -0.612374118736393 4.971979397764454 40 41 42
-0.204592813334929 -0.073698886873868 4.844248754831783 170 149 106
-0.203178020978028 0.030677548028734 4.883398443818930 137 118 87
-0.202683850701928 0.846923526718444 5.062612158800893 150 139 136
-0.194107460406506 0.384744856437332 5.113728015314412 72 54 42
-0.173111898850413 0.852811596440200 5.130701918356857 150 139 136
-0.173111898850413 0.852811596440200 5.130701918356857 150 139 136
-0.167584424396311 0.866138332718049 5.056178001831839 151 149 150
-0.163243291094014 0.510735610369066 5.180185708388382 72 54 42
-0.134945310238334 0.860678932044704 5.053364960231765 153 156 159
-0.130349337250676 0.266657771313774 5.025502117373070 233 169 85
-0.121442573725235 -0.139573477841171 4.809361316932100 110 78 46
-0.113724295978134 0.857558882978192 5.063107935162354 153 156 159
-0.109928908664577 -0.459360084823370 4.938011467245421 151 149 150
-0.100481310569912 -0.388092502695568 4.918896291734916 115 115 115
-0.098081630233477 -0.152105580086674 4.794083954874874 104 99 87
-0.102685824214622 0.826469285564411 5.083093031701641 137 140 143
-0.097590995515927 -0.687460965543752 5.084675318251333 98 107 107
-0.079738431794388 -0.109331662982795 4.830266772072025 183 154 120
-0.064097931031638 -0.117548485764937 4.849646840596322 171 148 88
-0.060892609336493 -0.351542516905069 4.924040251470406 53 52 50
-0.052952882640078 -0.057812895097214 4.905865664436747 254 254 218
-0.053105838030655 0.820056968740797 5.103416176308176 133 123 132
-0.019950808752759 0.770813396561897 5.141308783065991 115 115 115
-0.015606005312306 0.823844235547194 5.097240465923443 153 149 137
-0.002481616817898 -0.269613393697415 4.928673143909799 64 66 55
0.008071843269503 -0.901061880447922 5.342204395661520 57 57 58
0.007346269582316 -0.504486925992401 4.828641209443695 255 255 255
0.011332199267652 -0.486476792354966 4.831477108698532 122 115 88
0.022754234419388 0.358762266203357 5.201839152509414 110 78 46
0.095872584249752 0.694060442198089 5.300068957774346 107 107 107
0.118787372226580 -0.719141736204672 5.176748030932711 99 99 99
0.133041317977963 -0.803003598277661 5.172284402671505 99 99 99
0.139232016411506 0.174405837255513 5.236550458753288 119 98 71
0.148636818473273 0.157589174857437 5.229835237272173 254 253 235
0.148636818473273 0.157589174857437 5.229835237272173 254 253 235
0.167018516128990 0.428062874822891 5.412264543270082 135 133 134
0.167018516128990 0.428062874822891 5.412264543270082 135 133 134
0.158930683989929 -0.494356745339077 4.986835832691219 138 115 72
0.184718131022742 0.135028395238232 5.256668871733043 253 254 248
0.193903446477569 0.413596802795895 5.431344497115581 136 133 121
0.296300510026434 0.523711809798110 5.533540878749563 99 99 99
0.299103490093248 0.110111050017796 5.429657842107318 215 139 68
0.319525369489307 0.193513239538828 5.435530355790631 104 87 75
0.318829144443223 0.126674485233723 5.362155134238002 200 139 69
0.326996978362004 -0.714473009984492 5.299956708335330 211 80 45
0.415533725121266 -0.969316747718870 5.512494979478610 255 136 83
0.432897690303071 0.325053505754378 5.623729977706343 54 49 38
0.442045686225878 0.417653731394781 5.678489830126253 37 35 34
0.416990779103537 -0.270013751176968 5.329148939004087 104 99 87
0.430454045824403 -0.666349904905530 5.224768626728571 220 232 218
0.477747069511112 -1.070478035351777 5.490952699327421 255 255 255
0.475305260165204 -1.010989277611918 5.476135264312012 104 99 87
0.472605076583054 -0.534581615976330 5.319692403190310 132 72 34
0.475844321961500 -0.365994911914702 5.350289033518700 109 99 99
0.483119137347394 -0.557561892123158 5.320116455207185 153 149 137
0.486391730100078 -0.521463062472029 5.324020690138894 220 99 56
0.517869693764941 -0.042709971842866 5.561840897051487 171 165 138
0.526332765903291 -0.395440508187108 5.397685015256865 107 107 97
0.539695885239507 -0.117920593297849 5.542532224757722 83 74 82
0.562767897950540 -0.114794209804867 5.552485854176482 220 232 218
0.553595897901082 -0.347827746656456 5.445100278603171 90 90 93
0.570599932861584 -0.205450490625223 5.530781862292497 117 107 103
0.580168744340224 0.455199482186861 5.604782189326492 124 115 115
0.642876312471395 -0.515511435702534 5.479692274535259 201 187 170
0.642876312471395 -0.515511435702534 5.479692274535259 201 187 170
0.691782136229217 0.054397077830962 5.796387401805339 109 99 99
0.663728962661240 -0.645863168491493 5.469690659565285 124 43 20
0.705054636927261 0.068340421848051 5.795964487596366 217 221 221
0.692508633898804 -0.543807011713776 5.532200759336678 192 195 182
0.776061913379231 0.069979205687296 5.886478864560799 136 119 103
0.745717388249535 -0.574444586562825 5.553882534230343 188 181 159
0.801772426865817 0.013278114797619 5.882932945125380 231 220 207
0.778026800109390 -0.479227921115814 5.624555385458213 100 90 93
0.964838964023900 0.248429430597117 5.884304814943885 153 149 137
-1.000596660385206 0.332736379482729 5.219331240805057 152 105 51
-0.958669063306303 0.190735248901326 5.104058745320668 183 154 120
-0.944823312902635 0.220820692658982 5.111432515337542 255 251 200
-0.934139962508429 0.076490250836585 5.068704024584722 37 35 34
-0.867602732918401 0.080778692188805 5.035130130275756 54 49 38
-0.838910505248686 -0.509690910295213 4.957636701832415 123 123 123
-0.841403927994938 -0.633758106501022 5.121831470629552 41 50 50
-0.861463459576420 0.554496502403277 5.325239482990487 117 107 103
-0.861463459576420 0.554496502403277 5.325239482990487 117 107 103
-0.822613737867382 -0.643852365714173 5.139946284155113 149 140 149
-0.784517911348014 -0.504983690710237 4.929557104537951 124 115 123
-0.851941359200798 0.634988998329672 5.367239014338963 117 107 103
-0.845034027667083 0.583606182011147 5.334310071807221 150 139 136
-0.837702133740297 0.610953879574995 5.349252865969727 69 57 58
-0.801343513336854 -0.657860371786366 5.246629904570960 106 115 116
-0.765842317831639 0.232870715138459 5.059772251314309 252 236 200
-0.798810683097507 0.650676485999298 5.349486456307470 80 67 51
-0.759396375788175 0.500160652587961 5.258186451892810 47 33 23
-0.702434085069873 -0.498313352435324 4.896410886563412 121 135 137
-0.753632517297617 0.614697350531242 5.314756574104456 69 57 58
-0.671243682559675 -0.497286006179364 4.899705408934681 121 123 132
-0.650740253085986 -0.009661729030241 4.871094360476348 155 116 55
-0.698616661839513 0.706681000469330 5.341977625687727 54 49 38
-0.642035057151081 -0.495806287595973 4.900546550254486 121 123 132
-0.625410056971370 -0.142186637808190 4.817978098549973 202 184 152
-0.630964525622021 0.053031333553085 4.893172671573941 152 105 51
-0.614978107752265 -0.492793418341368 4.875305337198522 115 115 123
-0.621990346948878 0.272790271028425 5.019907252090510 183 122 60
-0.591228252436269 -0.340325642651425 4.830580969020112 35 24 34
-0.607663305666672 0.336558393247131 5.040332669576967 171 123 64
-0.571311440071540 0.102577473027490 4.964960239984960 72 54 42
-0.563620041764755 -0.547553543634465 4.918914088935278 99 99 107
-0.558952599218314 -0.490989557193270 4.863804710496154 114 123 123
-0.530368627474335 -0.487697007368874 4.853076774005134 124 115 123
-0.551767151005579 0.308859841620448 5.034121810661158 167 116 56
-0.524959584078922 -0.560244256749573 4.874588880997566 37 35 34
-0.555677002994923 0.732278201554457 5.310233204133165 18 15 13
-0.534807920627339 0.434208518072177 5.145571593963918 153 106 102
-0.535650923862559 0.705183360725833 5.311149136307958 23 24 25
-0.523341824726324 0.739775529062436 5.312006004752026 23 24 25
-0.457088360036480 -0.486725590377568 4.837243726512564 121 135 137
-0.484256819771380 0.709358632723545 5.298877950813094 18 15 13
-0.473637298770574 0.740491514109401 5.272860754710223 18 15 13
-0.388573762390371 -0.034035431280992 4.744691086149545 186 135 68
-0.388573762390371 -0.034035431280992 4.744691086149545 186 135 68
-0.400654568519717 -0.588989113213239 4.972421362545226 107 107 107
-0.348569238658472 0.064618702379816 4.846455952219785 218 156 83
-0.304185773123440 -0.778930757360087 4.941073671441272 117 107 103
-0.284118548718815 -0.557603344289365 4.882552692399297 135 133 134
-0.289807863711435 0.397177645968854 5.077853413639426 185 166 121
-0.259558926037345 0.088092150444434 4.938749932451553 201 187 170
-0.215151464199852 -0.166474339140260 4.757469554188223 199 172 154
-0.234655925954532 0.500897700254417 5.162241827078161 104 87 75
-0.227921052782666 0.407619904874596 5.127501591277625 188 181 159
-0.208637752106880 -0.236366675331753 4.728174530519270 114 123 123
-0.225947458487602 0.691095000396319 5.281936210864102 18 15 13
-0.198476073357906 -0.048140073081527 4.920355362937661 202 149 72
-0.195624067383899 0.134589688731370 4.970218924539505 153 135 103
-0.197605284012866 0.217006257001250 4.993005488578467 255 251 200
-0.194377061546492 0.197957361429967 5.011400210983125 86 73 66
-0.175168388713355 0.680187338708037 5.292237997606168 18 15 13
-0.155603425533482 -0.081623757483412 4.840178245199948 186 149 86
-0.163140336568269 0.510974649317888 5.180795279596087 72 54 42
-0.148091817502416 0.705368069552782 5.288200140051948 18 15 13
-0.130073089706587 -0.648774293455523 5.021606051742855 135 133 134
-0.131817338920759 0.301419129751203 5.080154074000061 218 156 83
-0.106268770297388 -0.441248208148729 4.935842909162278 18 15 13
-0.061099348780119 0.655958617581698 5.260263476127195 80 67 51
-0.061099348780119 0.655958617581698 5.260263476127195 80 67 51
-0.000646282856237 0.416928585577408 5.199439878645606 186 135 68
0.030054743790873 0.342355419465014 5.189579938521070 255 251 200
0.030054743790873 0.342355419465014 5.189579938521070 255 251 200
0.054254347045527 0.115279226044442 5.116263618140584 255 255 255
0.128698901083460 -0.492117459544943 4.945389755602596 219 166 83
0.132759006396321 -0.189655560517790 5.046521812632806 240 216 172
0.157514510381667 0.587214920877998 5.451988561446992 115 115 115
0.185452004600652 0.463810795660525 5.447466689355434 64 66 55
0.209898412701266 -0.793779803944282 5.198319771742564 252 114 69
0.213235021663111 -0.257335039202412 5.141936123849709 216 154 73
0.244639883406395 -0.873504990646165 5.386838134521884 255 136 83
0.244639883406395 -0.873504990646165 5.386838134521884 255 136 83
0.251552170939432 -0.917012109260887 5.382997148278031 37 23 18
0.274114909823555 -0.911690576581366 5.398991298525162 255 136 83
0.306709800015416 -0.812092349427913 5.308339850839510 234 88 47
0.321570252208584 -0.751765995866363 5.326760305464274 177 72 43
0.323785716987144 -0.669247605569934 5.289014126290334 202 68 33
0.338344413564932 -0.785777890283687 5.332479045985203 248 102 56
0.326970925935935 -0.404614794622783 5.182122565733278 54 49 38
0.352383215237436 0.396322939852867 5.572207436678547 72 54 42
0.342726373280051 -0.836469058437038 5.360364539084394 248 102 56
0.339275970557595 -0.608558714309333 5.266722531673663 221 104 69
0.349372457730771 -0.470720632636576 5.165065360313769 136 149 151
0.393022641363867 -0.909586367678944 5.421099205607106 232 95 59
0.377681598364594 -0.453330736188633 5.224309459548199 220 99 56
0.410912958584386 -0.966158942200387 5.494751703237411 252 114 69
0.474277363412741 -0.025406401970888 5.471278476940209 185 168 135
0.482816131669974 -0.919113074294553 5.469121103657364 216 90 58
0.482816131669974 -0.919113074294553 5.469121103657364 216 90 58
0.480770195130469 -0.556587182983287 5.311817025228486 151 136 119
0.486793206242015 -0.521405875677203 5.325440490307292 220 99 56
0.532772435278411 -0.318526355264761 5.432916267602798 151 136 119
0.602776222146694 -0.587807637494576 5.417117348749586 221 104 69
0.606441882746967 -0.635006872888146 5.417583081917895 136 133 121
0.660617007373630 -0.643961542922943 5.459625062924661 124 43 20
0.698405373887927 -0.647338611818250 5.497272826871495 211 80 45
0.730196575290818 -0.707554903097132 5.536109675110377 220 99 56
0.746775249023223 -0.677491411154514 5.535748201723520 216 90 58
0.814058249564673 0.177030878258725 5.975058970254748 119 115 105
0.828325284947273 -0.244982305510696 5.805055896955386 136 119 103
0.855442964164238 0.045238403528094 5.979184504170209 170 153 138
-1.066021042057641 -0.147219040969667 4.925234333038908 255 255 255
-0.939940709938658 -0.657063585304510 5.027694215711266 236 203 152
-0.845768563986719 -0.365426961752940 4.745386005877786 255 255 255
